x,y,z,intensity
123,5,115,135.0
123,5,116,105.0
123,5,117,95.0
123,5,118,106.0
123,5,119,98.0
123,6,104,149.0
123,6,105,146.0
123,6,106,140.0
123,6,107,123.0
123,6,108,113.0
123,6,109,110.0
123,6,110,100.0
123,6,111,88.0
123,6,112,73.0
123,6,113,69.0
123,6,114,73.0
123,6,115,73.0
123,6,116,91.0
123,7,96,78.0
123,7,97,86.0
123,7,98,83.0
123,7,99,90.0
123,7,100,115.0
123,7,101,108.0
123,7,102,101.0
123,7,103,112.0
123,7,104,110.0
123,7,105,108.0
123,7,106,104.0
124,5,115,103.0
124,5,116,87.0
124,5,117,74.0
124,5,118,86.0
124,5,119,87.0
124,6,104,122.0
124,6,105,125.0
124,6,106,114.0
124,6,107,94.0
124,6,108,84.0
124,6,109,78.0
124,6,110,84.0
124,6,111,79.0
124,6,112,72.0
124,6,113,74.0
124,6,114,70.0
124,6,115,74.0
124,6,116,92.0
124,7,96,72.0
124,7,97,85.0
124,7,98,74.0
124,7,99,67.0
124,7,100,89.0
124,7,101,85.0
124,7,102,82.0
124,7,103,91.0
124,7,104,99.0
124,7,105,102.0
124,7,106,106.0
125,5,104,116.0
125,5,105,125.0
125,5,106,122.0
125,5,107,109.0
125,5,108,111.0
125,5,109,97.0
125,5,110,94.0
125,5,111,96.0
125,5,112,87.0
125,5,113,84.0
125,5,114,91.0
125,5,115,89.0
125,5,116,83.0
125,5,117,75.0
125,5,118,72.0
125,5,119,82.0
125,5,120,98.0
125,5,121,96.0
125,6,93,101.0
125,6,94,109.0
125,6,95,97.0
125,6,96,82.0
125,6,97,98.0
125,6,98,116.0
125,6,99,108.0
125,6,100,107.0
125,6,101,117.0
125,6,102,111.0
125,6,103,102.0
125,6,104,86.0
125,6,105,91.0
125,6,106,96.0
125,6,107,77.0
125,6,108,65.0
125,6,109,62.0
125,6,110,78.0
125,6,111,74.0
125,6,112,64.0
125,6,113,78.0
125,6,114,84.0
125,6,115,95.0
125,6,116,107.0
125,7,81,66.0
125,7,82,72.0
125,7,83,87.0
125,7,84,100.0
125,7,85,104.0
125,7,86,96.0
125,7,87,102.0
125,7,88,106.0
125,7,89,100.0
125,7,90,101.0
125,7,91,101.0
125,7,92,102.0
125,7,93,84.0
125,7,94,83.0
125,7,95,83.0
125,7,96,69.0
125,7,97,68.0
125,7,98,70.0
125,7,99,63.0
125,7,100,70.0
125,7,101,73.0
125,7,102,86.0
125,7,103,100.0
125,7,104,102.0
125,7,105,107.0
125,7,106,118.0
125,8,81,47.0
125,8,82,59.0
125,8,83,77.0
125,8,84,80.0
125,8,85,75.0
125,8,86,77.0
125,8,87,69.0
125,8,88,68.0
125,8,89,65.0
125,8,90,66.0
125,8,91,83.0
125,8,92,95.0
125,8,93,108.0
126,5,102,120.0
126,5,103,107.0
126,5,104,110.0
126,5,105,117.0
126,5,106,111.0
126,5,107,95.0
126,5,108,96.0
126,5,109,84.0
126,5,110,79.0
126,5,111,87.0
126,5,112,80.0
126,5,113,71.0
126,5,114,75.0
126,5,115,71.0
126,5,116,73.0
126,5,117,80.0
126,5,118,76.0
126,5,119,86.0
126,6,90,121.0
126,6,91,106.0
126,6,92,105.0
126,6,93,94.0
126,6,94,92.0
126,6,95,113.0
126,6,96,95.0
126,6,97,79.0
126,6,98,101.0
126,6,99,97.0
126,6,100,87.0
126,6,101,85.0
126,6,102,87.0
126,6,103,89.0
126,6,104,71.0
126,6,105,79.0
126,6,106,80.0
126,6,107,67.0
126,6,108,65.0
126,6,109,64.0
126,6,110,84.0
126,6,111,91.0
126,6,112,90.0
126,6,113,93.0
126,7,78,78.0
126,7,79,69.0
126,7,80,64.0
126,7,81,67.0
126,7,82,72.0
126,7,83,82.0
126,7,84,92.0
126,7,85,93.0
126,7,86,94.0
126,7,87,100.0
126,7,88,97.0
126,7,89,87.0
126,7,90,90.0
126,7,91,86.0
126,7,92,81.0
126,7,93,82.0
126,7,94,67.0
126,7,95,66.0
126,7,96,75.0
126,7,97,69.0
126,7,98,64.0
126,7,99,63.0
126,7,100,75.0
126,7,101,77.0
126,7,102,82.0
126,7,103,106.0
126,8,73,105.0
126,8,74,103.0
126,8,75,97.0
126,8,76,83.0
126,8,77,64.0
126,8,78,44.0
126,8,79,46.0
126,8,80,51.0
126,8,81,53.0
126,8,82,60.0
126,8,83,69.0
126,8,84,66.0
126,8,85,66.0
126,8,86,67.0
126,8,87,64.0
126,8,88,67.0
126,8,89,61.0
126,8,90,67.0
126,8,91,91.0
126,8,92,110.0
127,5,102,124.0
127,5,103,111.0
127,5,104,104.0
127,5,105,99.0
127,5,106,91.0
127,5,107,84.0
127,5,108,86.0
127,5,109,80.0
127,5,110,75.0
127,5,111,77.0
127,5,112,79.0
127,5,113,77.0
127,5,114,83.0
127,5,115,87.0
127,5,116,85.0
127,5,117,91.0
127,5,118,92.0
127,5,119,108.0
127,6,90,100.0
127,6,91,98.0
127,6,92,100.0
127,6,93,99.0
127,6,94,82.0
127,6,95,88.0
127,6,96,94.0
127,6,97,78.0
127,6,98,70.0
127,6,99,73.0
127,6,100,81.0
127,6,101,83.0
127,6,102,87.0
127,6,103,83.0
127,6,104,68.0
127,6,105,72.0
127,6,106,56.0
127,6,107,55.0
127,6,108,66.0
127,6,109,73.0
127,6,110,101.0
127,6,111,99.0
127,6,112,114.0
127,6,113,128.0
127,7,78,65.0
127,7,79,71.0
127,7,80,75.0
127,7,81,74.0
127,7,82,84.0
127,7,83,90.0
127,7,84,93.0
127,7,85,92.0
127,7,86,88.0
127,7,87,87.0
127,7,88,86.0
127,7,89,80.0
127,7,90,79.0
127,7,91,75.0
127,7,92,62.0
127,7,93,82.0
127,7,94,78.0
127,7,95,56.0
127,7,96,61.0
127,7,97,71.0
127,7,98,65.0
127,7,99,57.0
127,7,100,70.0
127,7,101,89.0
127,7,102,106.0
127,7,103,127.0
127,8,73,86.0
127,8,74,80.0
127,8,75,72.0
127,8,76,60.0
127,8,77,52.0
127,8,78,44.0
127,8,79,40.0
127,8,80,48.0
127,8,81,52.0
127,8,82,55.0
127,8,83,66.0
127,8,84,61.0
127,8,85,71.0
127,8,86,60.0
127,8,87,57.0
127,8,88,85.0
127,8,89,81.0
127,8,90,84.0
127,8,91,110.0
127,8,92,120.0
128,5,101,125.0
128,5,102,114.0
128,5,103,108.0
128,5,104,94.0
128,5,105,83.0
128,5,106,90.0
128,5,107,85.0
128,5,108,73.0
128,5,109,69.0
128,5,110,77.0
128,5,111,79.0
128,5,112,82.0
128,5,113,79.0
128,5,114,77.0
128,6,86,116.0
128,6,87,115.0
128,6,88,104.0
128,6,89,110.0
128,6,90,100.0
128,6,91,96.0
128,6,92,94.0
128,6,93,96.0
128,6,94,82.0
128,6,95,72.0
128,6,96,83.0
128,6,97,96.0
128,6,98,75.0
128,6,99,71.0
128,6,100,79.0
128,6,101,77.0
128,6,102,80.0
128,6,103,84.0
128,6,104,78.0
128,6,105,80.0
128,6,106,66.0
128,6,107,71.0
128,6,108,85.0
128,6,109,91.0
128,7,72,120.0
128,7,73,114.0
128,7,74,104.0
128,7,75,91.0
128,7,76,87.0
128,7,77,87.0
128,7,78,79.0
128,7,79,71.0
128,7,80,75.0
128,7,81,80.0
128,7,82,85.0
128,7,83,88.0
128,7,84,85.0
128,7,85,79.0
128,7,86,67.0
128,7,87,69.0
128,7,88,73.0
128,7,89,66.0
128,7,90,65.0
128,7,91,76.0
128,7,92,56.0
128,7,93,62.0
128,7,94,76.0
128,7,95,67.0
128,7,96,54.0
128,7,97,67.0
128,7,98,83.0
128,7,99,69.0
128,7,100,74.0
128,8,69,84.0
128,8,70,70.0
128,8,71,75.0
128,8,72,77.0
128,8,73,67.0
128,8,74,61.0
128,8,75,61.0
128,8,76,56.0
128,8,77,52.0
128,8,78,53.0
128,8,79,48.0
128,8,80,49.0
128,8,81,49.0
128,8,82,48.0
128,8,83,60.0
128,8,84,56.0
128,8,85,69.0
128,8,86,57.0
128,8,87,65.0
128,8,88,110.0
128,8,89,104.0
129,5,101,109.0
129,5,102,95.0
129,5,103,97.0
129,5,104,92.0
129,5,105,78.0
129,5,106,77.0
129,5,107,76.0
129,5,108,72.0
129,5,109,74.0
129,5,110,78.0
129,5,111,85.0
129,5,112,91.0
129,5,113,100.0
129,5,114,103.0
129,6,86,102.0
129,6,87,116.0
129,6,88,101.0
129,6,89,100.0
129,6,90,101.0
129,6,91,95.0
129,6,92,84.0
129,6,93,88.0
129,6,94,87.0
129,6,95,78.0
129,6,96,64.0
129,6,97,65.0
129,6,98,61.0
129,6,99,72.0
129,6,100,82.0
129,6,101,78.0
129,6,102,73.0
129,6,103,80.0
129,6,104,81.0
129,6,105,84.0
129,6,106,79.0
129,6,107,91.0
129,6,108,114.0
129,6,109,121.0
129,7,72,102.0
129,7,73,99.0
129,7,74,85.0
129,7,75,82.0
129,7,76,76.0
129,7,77,75.0
129,7,78,87.0
129,7,79,78.0
129,7,80,77.0
129,7,81,76.0
129,7,82,74.0
129,7,83,72.0
129,7,84,65.0
129,7,85,66.0
129,7,86,54.0
129,7,87,63.0
129,7,88,66.0
129,7,89,56.0
129,7,90,52.0
129,7,91,76.0
129,7,92,55.0
129,7,93,41.0
129,7,94,54.0
129,7,95,71.0
129,7,96,65.0
129,7,97,71.0
129,7,98,89.0
129,7,99,80.0
129,7,100,112.0
129,8,69,67.0
129,8,70,60.0
129,8,71,58.0
129,8,72,56.0
129,8,73,53.0
129,8,74,54.0
129,8,75,57.0
129,8,76,59.0
129,8,77,53.0
129,8,78,50.0
129,8,79,47.0
129,8,80,41.0
129,8,81,45.0
129,8,82,50.0
129,8,83,58.0
129,8,84,59.0
129,8,85,81.0
129,8,86,66.0
129,8,87,66.0
129,8,88,109.0
129,8,89,111.0
130,5,98,106.0
130,5,99,114.0
130,5,100,109.0
130,5,101,98.0
130,5,102,87.0
130,5,103,77.0
130,5,104,81.0
130,5,105,83.0
130,5,106,79.0
130,5,107,83.0
130,5,108,90.0
130,5,109,92.0
130,5,110,91.0
130,5,111,101.0
130,6,85,88.0
130,6,86,96.0
130,6,87,102.0
130,6,88,101.0
130,6,89,92.0
130,6,90,92.0
130,6,91,90.0
130,6,92,74.0
130,6,93,69.0
130,6,94,70.0
130,6,95,78.0
130,6,96,70.0
130,6,97,64.0
130,6,98,56.0
130,6,99,63.0
130,6,100,71.0
130,6,101,79.0
130,6,102,76.0
130,6,103,91.0
130,6,104,96.0
130,6,105,104.0
130,6,106,110.0
130,7,69,120.0
130,7,70,109.0
130,7,71,101.0
130,7,72,92.0
130,7,73,89.0
130,7,74,80.0
130,7,75,85.0
130,7,76,92.0
130,7,77,85.0
130,7,78,79.0
130,7,79,79.0
130,7,80,74.0
130,7,81,62.0
130,7,82,60.0
130,7,83,57.0
130,7,84,57.0
130,7,85,68.0
130,7,86,50.0
130,7,87,54.0
130,7,88,63.0
130,7,89,63.0
130,7,90,48.0
130,7,91,72.0
130,7,92,60.0
130,7,93,47.0
130,7,94,60.0
130,7,95,77.0
130,7,96,84.0
130,7,97,87.0
130,8,64,62.0
130,8,65,72.0
130,8,66,64.0
130,8,67,52.0
130,8,68,49.0
130,8,69,52.0
130,8,70,49.0
130,8,71,49.0
130,8,72,53.0
130,8,73,52.0
130,8,74,52.0
130,8,75,52.0
130,8,76,52.0
130,8,77,53.0
130,8,78,48.0
130,8,79,48.0
130,8,80,42.0
130,8,81,45.0
130,8,82,57.0
130,8,83,62.0
130,8,84,62.0
130,8,85,83.0
130,8,86,78.0
130,8,87,84.0
130,9,67,65.0
130,9,68,61.0
130,9,69,64.0
130,9,70,64.0
130,9,71,71.0
131,5,96,124.0
131,5,97,112.0
131,5,98,101.0
131,5,99,96.0
131,5,100,95.0
131,5,101,90.0
131,5,102,84.0
131,5,103,78.0
131,5,104,77.0
131,5,105,87.0
131,6,83,121.0
131,6,84,104.0
131,6,85,98.0
131,6,86,103.0
131,6,87,93.0
131,6,88,101.0
131,6,89,82.0
131,6,90,75.0
131,6,91,79.0
131,6,92,76.0
131,6,93,68.0
131,6,94,56.0
131,6,95,57.0
131,6,96,57.0
131,6,97,68.0
131,6,98,68.0
131,6,99,67.0
131,6,100,73.0
131,6,101,84.0
131,6,102,92.0
131,6,103,116.0
131,7,65,116.0
131,7,66,111.0
131,7,67,108.0
131,7,68,114.0
131,7,69,114.0
131,7,70,102.0
131,7,71,101.0
131,7,72,97.0
131,7,73,88.0
131,7,74,91.0
131,7,75,88.0
131,7,76,85.0
131,7,77,81.0
131,7,78,72.0
131,7,79,68.0
131,7,80,55.0
131,7,81,46.0
131,7,82,53.0
131,7,83,49.0
131,7,84,47.0
131,7,85,60.0
131,7,86,57.0
131,7,87,52.0
131,7,88,52.0
131,7,89,70.0
131,7,90,49.0
131,7,91,56.0
131,7,92,63.0
131,7,93,63.0
131,7,94,71.0
131,7,95,80.0
131,8,62,49.0
131,8,63,49.0
131,8,64,50.0
131,8,65,44.0
131,8,66,40.0
131,8,67,46.0
131,8,68,43.0
131,8,69,43.0
131,8,70,42.0
131,8,71,41.0
131,8,72,50.0
131,8,73,48.0
131,8,74,48.0
131,8,75,55.0
131,8,76,45.0
131,8,77,46.0
131,8,78,41.0
131,8,79,47.0
131,8,80,51.0
131,8,81,53.0
131,8,82,64.0
131,8,83,78.0
131,8,84,73.0
131,8,85,76.0
131,8,86,69.0
131,8,87,105.0
131,9,62,54.0
131,9,63,55.0
131,9,64,60.0
131,9,65,55.0
131,9,66,57.0
131,9,67,58.0
131,9,68,58.0
131,9,69,59.0
131,9,70,58.0
131,9,71,66.0
131,9,72,65.0
132,5,96,110.0
132,5,97,105.0
132,5,98,99.0
132,5,99,95.0
132,5,100,88.0
132,5,101,86.0
132,5,102,84.0
132,5,103,96.0
132,5,104,100.0
132,5,105,112.0
132,6,83,115.0
132,6,84,94.0
132,6,85,103.0
132,6,86,111.0
132,6,87,96.0
132,6,88,98.0
132,6,89,89.0
132,6,90,75.0
132,6,91,64.0
132,6,92,70.0
132,6,93,74.0
132,6,94,65.0
132,6,95,61.0
132,6,96,57.0
132,6,97,65.0
132,6,98,63.0
132,6,99,71.0
132,6,100,81.0
132,6,101,100.0
132,6,102,114.0
132,6,103,146.0
132,7,65,111.0
132,7,66,111.0
132,7,67,111.0
132,7,68,102.0
132,7,69,103.0
132,7,70,94.0
132,7,71,93.0
132,7,72,96.0
132,7,73,86.0
132,7,74,88.0
132,7,75,79.0
132,7,76,67.0
132,7,77,64.0
132,7,78,63.0
132,7,79,62.0
132,7,80,45.0
132,7,81,43.0
132,7,82,50.0
132,7,83,48.0
132,7,84,43.0
132,7,85,45.0
132,7,86,63.0
132,7,87,58.0
132,7,88,42.0
132,7,89,55.0
132,7,90,52.0
132,7,91,54.0
132,7,92,71.0
132,7,93,78.0
132,7,94,85.0
132,7,95,88.0
132,8,62,48.0
132,8,63,39.0
132,8,64,36.0
132,8,65,33.0
132,8,66,33.0
132,8,67,44.0
132,8,68,42.0
132,8,69,40.0
132,8,70,43.0
132,8,71,39.0
132,8,72,48.0
132,8,73,46.0
132,8,74,42.0
132,8,75,55.0
132,8,76,46.0
132,8,77,44.0
132,8,78,47.0
132,8,79,49.0
132,8,80,55.0
132,8,81,59.0
132,8,82,59.0
132,8,83,78.0
132,8,84,87.0
132,8,85,102.0
132,8,86,85.0
132,8,87,127.0
132,9,62,44.0
132,9,63,43.0
132,9,64,50.0
132,9,65,48.0
132,9,66,50.0
132,9,67,51.0
132,9,68,53.0
132,9,69,59.0
132,9,70,53.0
132,9,71,61.0
132,9,72,63.0
133,5,96,108.0
133,5,97,101.0
133,5,98,92.0
133,5,99,93.0
133,5,100,91.0
133,5,101,94.0
133,6,81,123.0
133,6,82,126.0
133,6,83,115.0
133,6,84,88.0
133,6,85,102.0
133,6,86,117.0
133,6,87,91.0
133,6,88,73.0
133,6,89,83.0
133,6,90,81.0
133,6,91,64.0
133,6,92,52.0
133,6,93,60.0
133,6,94,61.0
133,6,95,61.0
133,6,96,66.0
133,6,97,68.0
133,6,98,67.0
133,7,64,113.0
133,7,65,112.0
133,7,66,109.0
133,7,67,105.0
133,7,68,98.0
133,7,69,96.0
133,7,70,87.0
133,7,71,84.0
133,7,72,86.0
133,7,73,77.0
133,7,74,70.0
133,7,75,64.0
133,7,76,64.0
133,7,77,52.0
133,7,78,49.0
133,7,79,59.0
133,7,80,48.0
133,7,81,51.0
133,7,82,47.0
133,7,83,46.0
133,7,84,51.0
133,7,85,43.0
133,7,86,51.0
133,7,87,55.0
133,7,88,46.0
133,7,89,48.0
133,7,90,60.0
133,7,91,66.0
133,7,92,75.0
133,8,59,71.0
133,8,60,54.0
133,8,61,42.0
133,8,62,41.0
133,8,63,34.0
133,8,64,32.0
133,8,65,32.0
133,8,66,32.0
133,8,67,39.0
133,8,68,40.0
133,8,69,37.0
133,8,70,41.0
133,8,71,38.0
133,8,72,40.0
133,8,73,44.0
133,8,74,35.0
133,8,75,45.0
133,8,76,48.0
133,8,77,49.0
133,8,78,49.0
133,8,79,47.0
133,8,80,54.0
133,8,81,69.0
133,8,82,70.0
133,8,83,72.0
133,8,84,89.0
133,8,85,124.0
133,9,59,44.0
133,9,60,29.0
133,9,61,29.0
133,9,62,41.0
133,9,63,43.0
133,9,64,46.0
133,9,65,44.0
133,9,66,49.0
133,9,67,49.0
133,9,68,48.0
133,9,69,58.0
133,9,70,51.0
133,9,71,53.0
133,9,72,61.0
134,5,96,115.0
134,5,97,106.0
134,5,98,99.0
134,5,99,109.0
134,5,100,118.0
134,5,101,132.0
134,6,81,127.0
134,6,82,120.0
134,6,83,117.0
134,6,84,90.0
134,6,85,83.0
134,6,86,103.0
134,6,87,92.0
134,6,88,69.0
134,6,89,77.0
134,6,90,71.0
134,6,91,64.0
134,6,92,50.0
134,6,93,59.0
134,6,94,60.0
134,6,95,61.0
134,6,96,74.0
134,6,97,70.0
134,6,98,78.0
134,7,64,105.0
134,7,65,110.0
134,7,66,103.0
134,7,67,96.0
134,7,68,94.0
134,7,69,91.0
134,7,70,83.0
134,7,71,78.0
134,7,72,77.0
134,7,73,72.0
134,7,74,68.0
134,7,75,62.0
134,7,76,62.0
134,7,77,45.0
134,7,78,40.0
134,7,79,50.0
134,7,80,41.0
134,7,81,49.0
134,7,82,48.0
134,7,83,48.0
134,7,84,53.0
134,7,85,52.0
134,7,86,47.0
134,7,87,48.0
134,7,88,55.0
134,7,89,52.0
134,7,90,61.0
134,7,91,77.0
134,7,92,85.0
134,8,59,52.0
134,8,60,43.0
134,8,61,34.0
134,8,62,31.0
134,8,63,32.0
134,8,64,30.0
134,8,65,32.0
134,8,66,34.0
134,8,67,35.0
134,8,68,35.0
134,8,69,34.0
134,8,70,34.0
134,8,71,37.0
134,8,72,37.0
134,8,73,41.0
134,8,74,38.0
134,8,75,42.0
134,8,76,50.0
134,8,77,54.0
134,8,78,51.0
134,8,79,61.0
134,8,80,63.0
134,8,81,67.0
134,8,82,84.0
134,8,83,79.0
134,8,84,106.0
134,8,85,150.0
134,9,59,35.0
134,9,60,32.0
134,9,61,31.0
134,9,62,38.0
134,9,63,47.0
134,9,64,51.0
134,9,65,44.0
134,9,66,46.0
134,9,67,49.0
134,9,68,43.0
134,9,69,52.0
134,9,70,53.0
134,9,71,53.0
134,9,72,62.0
135,6,81,128.0
135,6,82,120.0
135,6,83,110.0
135,6,84,102.0
135,6,85,86.0
135,6,86,81.0
135,6,87,83.0
135,6,88,69.0
135,6,89,75.0
135,6,90,67.0
135,6,91,71.0
135,6,92,69.0
135,6,93,66.0
135,6,94,63.0
135,6,95,66.0
135,6,96,77.0
135,6,97,81.0
135,7,62,110.0
135,7,63,109.0
135,7,64,107.0
135,7,65,104.0
135,7,66,97.0
135,7,67,91.0
135,7,68,87.0
135,7,69,82.0
135,7,70,77.0
135,7,71,72.0
135,7,72,66.0
135,7,73,60.0
135,7,74,66.0
135,7,75,61.0
135,7,76,54.0
135,7,77,43.0
135,7,78,41.0
135,7,79,50.0
135,7,80,41.0
135,7,81,45.0
135,7,82,45.0
135,7,83,51.0
135,7,84,49.0
135,7,85,54.0
135,7,86,47.0
135,7,87,48.0
135,7,88,61.0
135,7,89,62.0
135,7,90,73.0
135,8,57,64.0
135,8,58,50.0
135,8,59,38.0
135,8,60,35.0
135,8,61,35.0
135,8,62,29.0
135,8,63,29.0
135,8,64,30.0
135,8,65,33.0
135,8,66,36.0
135,8,67,30.0
135,8,68,31.0
135,8,69,35.0
135,8,70,29.0
135,8,71,35.0
135,8,72,39.0
135,8,73,37.0
135,8,74,43.0
135,8,75,47.0
135,8,76,51.0
135,8,77,54.0
135,8,78,50.0
135,8,79,73.0
135,8,80,77.0
135,8,81,71.0
135,8,82,90.0
135,8,83,89.0
135,8,84,125.0
135,9,54,46.0
135,9,55,41.0
135,9,56,39.0
135,9,57,41.0
135,9,58,38.0
135,9,59,37.0
135,9,60,38.0
135,9,61,33.0
135,9,62,28.0
135,9,63,39.0
135,9,64,49.0
135,9,65,45.0
135,9,66,45.0
135,9,67,48.0
135,9,68,48.0
135,9,69,54.0
135,9,70,56.0
135,9,71,61.0
136,6,81,124.0
136,6,82,123.0
136,6,83,106.0
136,6,84,103.0
136,6,85,100.0
136,6,86,79.0
136,6,87,75.0
136,6,88,69.0
136,6,89,67.0
136,6,90,64.0
136,6,91,72.0
136,6,92,75.0
136,6,93,71.0
136,7,62,111.0
136,7,63,108.0
136,7,64,103.0
136,7,65,94.0
136,7,66,87.0
136,7,67,80.0
136,7,68,78.0
136,7,69,75.0
136,7,70,67.0
136,7,71,60.0
136,7,72,55.0
136,7,73,49.0
136,7,74,53.0
136,7,75,49.0
136,7,76,49.0
136,7,77,47.0
136,7,78,40.0
136,7,79,50.0
136,7,80,43.0
136,7,81,45.0
136,7,82,40.0
136,7,83,52.0
136,7,84,56.0
136,7,85,61.0
136,7,86,53.0
136,7,87,58.0
136,8,56,61.0
136,8,57,48.0
136,8,58,37.0
136,8,59,29.0
136,8,60,28.0
136,8,61,33.0
136,8,62,31.0
136,8,63,32.0
136,8,64,30.0
136,8,65,29.0
136,8,66,32.0
136,8,67,27.0
136,8,68,32.0
136,8,69,39.0
136,8,70,27.0
136,8,71,30.0
136,8,72,38.0
136,8,73,36.0
136,8,74,43.0
136,8,75,42.0
136,8,76,48.0
136,8,77,59.0
136,8,78,55.0
136,8,79,72.0
136,8,80,88.0
136,8,81,92.0
136,8,82,95.0
136,9,51,48.0
136,9,52,43.0
136,9,53,37.0
136,9,54,37.0
136,9,55,35.0
136,9,56,30.0
136,9,57,30.0
136,9,58,33.0
136,9,59,31.0
136,9,60,34.0
136,9,61,37.0
136,9,62,29.0
136,9,63,32.0
136,9,64,42.0
136,9,65,48.0
136,9,66,50.0
136,9,67,49.0
136,9,68,62.0
136,9,69,65.0
137,6,81,124.0
137,6,82,119.0
137,6,83,113.0
137,6,84,100.0
137,6,85,97.0
137,6,86,81.0
137,6,87,82.0
137,6,88,85.0
137,6,89,71.0
137,6,90,77.0
137,6,91,80.0
137,6,92,78.0
137,6,93,89.0
137,7,62,109.0
137,7,63,100.0
137,7,64,92.0
137,7,65,84.0
137,7,66,77.0
137,7,67,70.0
137,7,68,72.0
137,7,69,72.0
137,7,70,62.0
137,7,71,53.0
137,7,72,54.0
137,7,73,54.0
137,7,74,48.0
137,7,75,43.0
137,7,76,49.0
137,7,77,51.0
137,7,78,39.0
137,7,79,48.0
137,7,80,41.0
137,7,81,44.0
137,7,82,47.0
137,7,83,55.0
137,7,84,57.0
137,7,85,66.0
137,7,86,67.0
137,7,87,71.0
137,8,56,47.0
137,8,57,36.0
137,8,58,29.0
137,8,59,28.0
137,8,60,30.0
137,8,61,31.0
137,8,62,28.0
137,8,63,29.0
137,8,64,28.0
137,8,65,28.0
137,8,66,32.0
137,8,67,28.0
137,8,68,30.0
137,8,69,40.0
137,8,70,34.0
137,8,71,29.0
137,8,72,36.0
137,8,73,40.0
137,8,74,47.0
137,8,75,45.0
137,8,76,50.0
137,8,77,65.0
137,8,78,69.0
137,8,79,89.0
137,8,80,106.0
137,8,81,117.0
137,8,82,108.0
137,9,51,36.0
137,9,52,33.0
137,9,53,31.0
137,9,54,30.0
137,9,55,32.0
137,9,56,26.0
137,9,57,24.0
137,9,58,27.0
137,9,59,26.0
137,9,60,31.0
137,9,61,38.0
137,9,62,38.0
137,9,63,40.0
137,9,64,45.0
137,9,65,49.0
137,9,66,53.0
137,9,67,56.0
137,9,68,72.0
137,9,69,80.0
138,6,81,127.0
138,6,82,120.0
138,6,83,124.0
138,6,84,115.0
138,6,85,101.0
138,6,86,83.0
138,6,87,90.0
138,6,88,97.0
138,6,89,95.0
138,7,61,110.0
138,7,62,101.0
138,7,63,89.0
138,7,64,84.0
138,7,65,81.0
138,7,66,73.0
138,7,67,69.0
138,7,68,67.0
138,7,69,67.0
138,7,70,65.0
138,7,71,59.0
138,7,72,58.0
138,7,73,53.0
138,7,74,49.0
138,7,75,49.0
138,7,76,49.0
138,7,77,49.0
138,7,78,40.0
138,7,79,52.0
138,7,80,49.0
138,7,81,49.0
138,7,82,55.0
138,7,83,57.0
138,7,84,60.0
138,7,85,67.0
138,7,86,76.0
138,7,87,77.0
138,8,54,61.0
138,8,55,43.0
138,8,56,34.0
138,8,57,29.0
138,8,58,24.0
138,8,59,24.0
138,8,60,26.0
138,8,61,32.0
138,8,62,31.0
138,8,63,28.0
138,8,64,28.0
138,8,65,33.0
138,8,66,41.0
138,8,67,33.0
138,8,68,26.0
138,8,69,36.0
138,8,70,40.0
138,8,71,33.0
138,8,72,35.0
138,8,73,44.0
138,8,74,49.0
138,8,75,55.0
138,8,76,60.0
138,8,77,73.0
138,8,78,83.0
138,8,79,104.0
138,8,80,120.0
138,9,48,37.0
138,9,49,36.0
138,9,50,35.0
138,9,51,31.0
138,9,52,30.0
138,9,53,29.0
138,9,54,26.0
138,9,55,27.0
138,9,56,26.0
138,9,57,27.0
138,9,58,29.0
138,9,59,26.0
138,9,60,32.0
138,9,61,36.0
138,9,62,34.0
138,9,63,39.0
138,9,64,47.0
138,9,65,47.0
138,9,66,56.0
138,9,67,67.0
138,9,68,78.0
139,7,59,105.0
139,7,60,102.0
139,7,61,96.0
139,7,62,91.0
139,7,63,85.0
139,7,64,76.0
139,7,65,74.0
139,7,66,74.0
139,7,67,70.0
139,7,68,63.0
139,7,69,66.0
139,7,70,64.0
139,7,71,59.0
139,7,72,61.0
139,7,73,50.0
139,7,74,47.0
139,7,75,49.0
139,7,76,47.0
139,7,77,48.0
139,7,78,40.0
139,7,79,54.0
139,7,80,59.0
139,7,81,58.0
139,7,82,62.0
139,7,83,62.0
139,7,84,76.0
139,8,51,53.0
139,8,52,56.0
139,8,53,52.0
139,8,54,42.0
139,8,55,35.0
139,8,56,31.0
139,8,57,29.0
139,8,58,29.0
139,8,59,27.0
139,8,60,26.0
139,8,61,33.0
139,8,62,31.0
139,8,63,27.0
139,8,64,26.0
139,8,65,29.0
139,8,66,39.0
139,8,67,36.0
139,8,68,31.0
139,8,69,34.0
139,8,70,37.0
139,8,71,36.0
139,8,72,37.0
139,8,73,50.0
139,8,74,48.0
139,8,75,56.0
139,8,76,64.0
139,8,77,91.0
139,8,78,102.0
139,8,79,112.0
139,9,46,42.0
139,9,47,33.0
139,9,48,29.0
139,9,49,31.0
139,9,50,29.0
139,9,51,27.0
139,9,52,27.0
139,9,53,27.0
139,9,54,26.0
139,9,55,23.0
139,9,56,24.0
139,9,57,28.0
139,9,58,30.0
139,9,59,30.0
139,9,60,32.0
139,9,61,38.0
139,9,62,37.0
139,9,63,42.0
139,9,64,54.0
139,9,65,57.0
139,9,66,67.0
140,7,59,95.0
140,7,60,91.0
140,7,61,82.0
140,7,62,79.0
140,7,63,80.0
140,7,64,75.0
140,7,65,71.0
140,7,66,75.0
140,7,67,72.0
140,7,68,66.0
140,7,69,74.0
140,7,70,65.0
140,7,71,60.0
140,7,72,64.0
140,7,73,60.0
140,7,74,57.0
140,7,75,47.0
140,7,76,48.0
140,7,77,54.0
140,7,78,48.0
140,7,79,58.0
140,7,80,62.0
140,7,81,67.0
140,7,82,75.0
140,7,83,78.0
140,7,84,97.0
140,8,51,49.0
140,8,52,47.0
140,8,53,36.0
140,8,54,32.0
140,8,55,30.0
140,8,56,30.0
140,8,57,32.0
140,8,58,32.0
140,8,59,29.0
140,8,60,28.0
140,8,61,32.0
140,8,62,30.0
140,8,63,30.0
140,8,64,30.0
140,8,65,30.0
140,8,66,39.0
140,8,67,39.0
140,8,68,35.0
140,8,69,34.0
140,8,70,35.0
140,8,71,40.0
140,8,72,41.0
140,8,73,55.0
140,8,74,60.0
140,8,75,67.0
140,8,76,71.0
140,8,77,104.0
140,8,78,121.0
140,8,79,133.0
140,9,46,34.0
140,9,47,30.0
140,9,48,26.0
140,9,49,25.0
140,9,50,25.0
140,9,51,25.0
140,9,52,24.0
140,9,53,25.0
140,9,54,28.0
140,9,55,25.0
140,9,56,26.0
140,9,57,29.0
140,9,58,31.0
140,9,59,32.0
140,9,60,30.0
140,9,61,40.0
140,9,62,46.0
140,9,63,48.0
140,9,64,58.0
140,9,65,66.0
140,9,66,74.0
141,7,57,96.0
141,7,58,91.0
141,7,59,88.0
141,7,60,88.0
141,7,61,79.0
141,7,62,74.0
141,7,63,80.0
141,7,64,80.0
141,7,65,75.0
141,7,66,79.0
141,7,67,76.0
141,7,68,74.0
141,7,69,78.0
141,7,70,69.0
141,7,71,67.0
141,7,72,56.0
141,7,73,62.0
141,7,74,63.0
141,7,75,54.0
141,7,76,59.0
141,7,77,56.0
141,7,78,60.0
141,7,79,68.0
141,7,80,67.0
141,8,49,46.0
141,8,50,43.0
141,8,51,40.0
141,8,52,38.0
141,8,53,35.0
141,8,54,30.0
141,8,55,25.0
141,8,56,28.0
141,8,57,35.0
141,8,58,32.0
141,8,59,29.0
141,8,60,27.0
141,8,61,29.0
141,8,62,33.0
141,8,63,37.0
141,8,64,35.0
141,8,65,32.0
141,8,66,39.0
141,8,67,39.0
141,8,68,35.0
141,8,69,37.0
141,8,70,42.0
141,8,71,49.0
141,8,72,47.0
141,8,73,56.0
141,8,74,68.0
141,8,75,86.0
141,8,76,96.0
141,9,45,33.0
141,9,46,31.0
141,9,47,29.0
141,9,48,23.0
141,9,49,20.0
141,9,50,24.0
141,9,51,26.0
141,9,52,24.0
141,9,53,24.0
141,9,54,27.0
141,9,55,27.0
141,9,56,28.0
141,9,57,31.0
141,9,58,31.0
141,9,59,30.0
141,9,60,30.0
141,9,61,40.0
141,9,62,50.0
141,9,63,56.0
141,9,64,64.0
142,7,57,91.0
142,7,58,88.0
142,7,59,89.0
142,7,60,87.0
142,7,61,81.0
142,7,62,84.0
142,7,63,88.0
142,7,64,83.0
142,7,65,78.0
142,7,66,86.0
142,7,67,86.0
142,7,68,85.0
142,7,69,83.0
142,7,70,74.0
142,7,71,76.0
142,7,72,63.0
142,7,73,68.0
142,7,74,63.0
142,7,75,65.0
142,7,76,73.0
142,7,77,65.0
142,7,78,76.0
142,7,79,82.0
142,7,80,90.0
142,8,49,44.0
142,8,50,42.0
142,8,51,39.0
142,8,52,38.0
142,8,53,34.0
142,8,54,30.0
142,8,55,27.0
142,8,56,29.0
142,8,57,35.0
142,8,58,36.0
142,8,59,34.0
142,8,60,32.0
142,8,61,30.0
142,8,62,37.0
142,8,63,42.0
142,8,64,40.0
142,8,65,38.0
142,8,66,40.0
142,8,67,43.0
142,8,68,41.0
142,8,69,41.0
142,8,70,44.0
142,8,71,55.0
142,8,72,62.0
142,8,73,71.0
142,8,74,79.0
142,8,75,97.0
142,8,76,114.0
142,9,45,26.0
142,9,46,24.0
142,9,47,26.0
142,9,48,25.0
142,9,49,23.0
142,9,50,25.0
142,9,51,23.0
142,9,52,23.0
142,9,53,23.0
142,9,54,23.0
142,9,55,26.0
142,9,56,27.0
142,9,57,32.0
142,9,58,33.0
142,9,59,34.0
142,9,60,42.0
142,9,61,50.0
142,9,62,61.0
142,9,63,66.0
142,9,64,76.0
143,7,56,87.0
143,7,57,88.0
143,7,58,89.0
143,7,59,94.0
143,7,60,90.0
143,7,61,91.0
143,7,62,100.0
143,7,63,94.0
143,7,64,90.0
143,7,65,88.0
143,7,66,84.0
143,7,67,87.0
143,7,68,89.0
143,7,69,87.0
143,7,70,77.0
143,7,71,82.0
143,7,72,80.0
143,7,73,83.0
143,7,74,78.0
143,7,75,83.0
143,7,76,94.0
143,7,77,105.0
143,8,48,45.0
143,8,49,44.0
143,8,50,41.0
143,8,51,38.0
143,8,52,35.0
143,8,53,31.0
143,8,54,33.0
143,8,55,35.0
143,8,56,35.0
143,8,57,39.0
143,8,58,40.0
143,8,59,39.0
143,8,60,40.0
143,8,61,34.0
143,8,62,39.0
143,8,63,44.0
143,8,64,43.0
143,8,65,50.0
143,8,66,46.0
143,8,67,46.0
143,8,68,49.0
143,8,69,52.0
143,8,70,54.0
143,8,71,61.0
143,8,72,73.0
143,9,43,23.0
143,9,44,25.0
143,9,45,25.0
143,9,46,21.0
143,9,47,22.0
143,9,48,22.0
143,9,49,23.0
143,9,50,24.0
143,9,51,23.0
143,9,52,29.0
143,9,53,28.0
143,9,54,25.0
143,9,55,31.0
143,9,56,31.0
143,9,57,31.0
143,9,58,35.0
143,9,59,40.0
143,9,60,50.0
143,9,61,58.0
143,9,62,73.0
143,9,63,77.0
144,7,56,86.0
144,7,57,87.0
144,7,58,85.0
144,7,59,96.0
144,7,60,103.0
144,7,61,106.0
144,7,62,107.0
144,7,63,98.0
144,7,64,101.0
144,7,65,102.0
144,7,66,90.0
144,7,67,93.0
144,7,68,97.0
144,7,69,99.0
144,7,70,95.0
144,7,71,98.0
144,7,72,98.0
144,8,46,47.0
144,8,47,45.0
144,8,48,42.0
144,8,49,42.0
144,8,50,37.0
144,8,51,35.0
144,8,52,33.0
144,8,53,31.0
144,8,54,37.0
144,8,55,40.0
144,8,56,42.0
144,8,57,45.0
144,8,58,40.0
144,8,59,39.0
144,8,60,42.0
144,8,61,35.0
144,8,62,39.0
144,8,63,46.0
144,8,64,43.0
144,8,65,50.0
144,8,66,52.0
144,8,67,49.0
144,8,68,55.0
144,8,69,62.0
144,8,70,67.0
144,8,71,74.0
144,9,41,25.0
144,9,42,22.0
144,9,43,21.0
144,9,44,25.0
144,9,45,27.0
144,9,46,25.0
144,9,47,24.0
144,9,48,24.0
144,9,49,26.0
144,9,50,27.0
144,9,51,24.0
144,9,52,27.0
144,9,53,30.0
144,9,54,29.0
144,9,55,37.0
144,9,56,39.0
144,9,57,34.0
144,9,58,36.0
144,9,59,41.0
144,9,60,52.0
145,7,56,87.0
145,7,57,85.0
145,7,58,83.0
145,7,59,96.0
145,7,60,115.0
145,7,61,115.0
145,7,62,106.0
145,7,63,110.0
145,7,64,115.0
145,7,65,112.0
145,7,66,106.0
145,7,67,112.0
145,7,68,110.0
145,7,69,111.0
145,7,70,110.0
145,7,71,115.0
145,7,72,119.0
145,8,46,43.0
145,8,47,42.0
145,8,48,40.0
145,8,49,39.0
145,8,50,37.0
145,8,51,36.0
145,8,52,35.0
145,8,53,36.0
145,8,54,40.0
145,8,55,39.0
145,8,56,39.0
145,8,57,40.0
145,8,58,42.0
145,8,59,43.0
145,8,60,42.0
145,8,61,37.0
145,8,62,38.0
145,8,63,45.0
145,8,64,43.0
145,8,65,47.0
145,8,66,58.0
145,8,67,58.0
145,8,68,67.0
145,8,69,72.0
145,8,70,82.0
145,8,71,103.0
145,9,41,22.0
145,9,42,23.0
145,9,43,24.0
145,9,44,26.0
145,9,45,26.0
145,9,46,28.0
145,9,47,29.0
145,9,48,29.0
145,9,49,29.0
145,9,50,31.0
145,9,51,29.0
145,9,52,29.0
145,9,53,35.0
145,9,54,36.0
145,9,55,36.0
145,9,56,41.0
145,9,57,42.0
145,9,58,44.0
145,9,59,44.0
145,9,60,61.0
146,7,53,69.0
146,7,54,76.0
146,7,55,89.0
146,7,56,91.0
146,7,57,92.0
146,7,58,91.0
146,8,45,48.0
146,8,46,44.0
146,8,47,44.0
146,8,48,39.0
146,8,49,38.0
146,8,50,42.0
146,8,51,41.0
146,8,52,39.0
146,8,53,43.0
146,8,54,45.0
146,8,55,42.0
146,8,56,37.0
146,8,57,40.0
146,8,58,48.0
146,8,59,45.0
146,8,60,40.0
146,8,61,43.0
146,8,62,45.0
146,8,63,49.0
146,8,64,48.0
146,8,65,55.0
146,8,66,71.0
146,8,67,79.0
146,8,68,92.0
146,9,41,18.0
146,9,42,22.0
146,9,43,22.0
146,9,44,22.0
146,9,45,24.0
146,9,46,26.0
146,9,47,28.0
146,9,48,30.0
146,9,49,29.0
146,9,50,33.0
146,9,51,35.0
146,9,52,33.0
146,9,53,39.0
146,9,54,37.0
146,9,55,34.0
146,9,56,42.0
146,9,57,48.0
146,9,58,47.0
147,7,49,68.0
147,7,50,69.0
147,7,51,70.0
147,7,52,70.0
147,7,53,61.0
147,8,43,47.0
147,8,44,46.0
147,8,45,47.0
147,8,46,46.0
147,8,47,43.0
147,8,48,39.0
147,8,49,42.0
147,8,50,47.0
147,8,51,44.0
147,8,52,43.0
147,8,53,50.0
147,8,54,53.0
147,8,55,47.0
147,8,56,42.0
147,8,57,44.0
147,8,58,46.0
147,8,59,45.0
147,8,60,47.0
147,8,61,51.0
147,8,62,60.0
147,8,63,62.0
147,9,40,21.0
147,9,41,19.0
147,9,42,22.0
147,9,43,23.0
147,9,44,26.0
147,9,45,27.0
147,9,46,27.0
147,9,47,31.0
147,9,48,36.0
147,9,49,35.0
147,9,50,34.0
147,9,51,37.0
147,9,52,38.0
147,9,53,40.0
147,9,54,39.0
147,9,55,38.0
148,7,49,56.0
148,7,50,64.0
148,7,51,68.0
148,7,52,65.0
148,7,53,58.0
148,8,43,49.0
148,8,44,46.0
148,8,45,45.0
148,8,46,42.0
148,8,47,42.0
148,8,48,44.0
148,8,49,45.0
148,8,50,45.0
148,8,51,47.0
148,8,52,53.0
148,8,53,57.0
148,8,54,59.0
148,8,55,55.0
148,8,56,50.0
148,8,57,51.0
148,8,58,54.0
148,8,59,58.0
148,8,60,56.0
148,8,61,59.0
148,8,62,73.0
148,8,63,80.0
148,9,40,23.0
148,9,41,25.0
148,9,42,25.0
148,9,43,28.0
148,9,44,33.0
148,9,45,33.0
148,9,46,31.0
148,9,47,34.0
148,9,48,41.0
148,9,49,43.0
148,9,50,37.0
148,9,51,37.0
148,9,52,42.0
148,9,53,45.0
148,9,54,44.0
148,9,55,43.0
149,7,46,50.0
149,7,47,48.0
149,7,48,45.0
149,7,49,50.0
149,7,50,58.0
149,7,51,59.0
149,7,52,56.0
149,7,53,53.0
149,8,41,40.0
149,8,42,39.0
149,8,43,45.0
149,8,44,42.0
149,8,45,39.0
149,8,46,41.0
149,8,47,47.0
149,8,48,50.0
149,8,49,49.0
149,8,50,50.0
149,9,37,22.0
149,9,38,25.0
149,9,39,22.0
149,9,40,26.0
149,9,41,28.0
149,9,42,28.0
149,9,43,33.0
149,9,44,36.0
149,9,45,38.0
149,9,46,41.0
149,9,47,39.0
149,9,48,43.0
149,9,49,48.0
149,9,50,43.0
150,7,46,41.0
150,7,47,43.0
150,7,48,44.0
150,7,49,47.0
150,7,50,52.0
150,7,51,50.0
150,7,52,48.0
150,7,53,50.0
150,8,41,33.0
150,8,42,32.0
150,8,43,37.0
150,8,44,37.0
150,8,45,39.0
150,8,46,44.0
150,8,47,50.0
150,8,48,55.0
150,8,49,55.0
150,8,50,58.0
150,9,37,25.0
150,9,38,26.0
150,9,39,25.0
150,9,40,28.0
150,9,41,27.0
150,9,42,32.0
150,9,43,38.0
150,9,44,38.0
150,9,45,42.0
150,9,46,49.0
150,9,47,46.0
150,9,48,45.0
150,9,49,48.0
150,9,50,46.0
151,7,43,48.0
151,7,44,44.0
151,7,45,40.0
151,7,46,38.0
151,7,47,45.0
151,7,48,43.0
151,7,49,40.0
151,7,50,45.0
151,7,51,45.0
151,7,52,45.0
151,7,53,48.0
151,7,54,52.0
151,7,55,59.0
151,8,37,36.0
151,8,38,30.0
151,8,39,30.0
151,8,40,33.0
151,8,41,33.0
151,8,42,31.0
151,8,43,35.0
151,8,44,40.0
151,8,45,44.0
151,8,46,45.0
151,8,47,51.0
151,9,32,23.0
151,9,33,24.0
151,9,34,21.0
151,9,35,19.0
151,9,36,21.0
151,9,37,26.0
151,9,38,26.0
151,9,39,27.0
151,9,40,30.0
152,7,43,44.0
152,7,44,43.0
152,7,45,37.0
152,7,46,37.0
152,7,47,47.0
152,7,48,40.0
152,7,49,32.0
152,7,50,39.0
152,7,51,40.0
152,7,52,42.0
152,7,53,46.0
152,7,54,47.0
152,7,55,49.0
152,7,56,56.0
152,8,35,37.0
152,8,36,36.0
152,8,37,31.0
152,8,38,29.0
152,8,39,24.0
152,8,40,27.0
152,8,41,32.0
152,8,42,30.0
152,8,43,34.0
152,8,44,36.0
152,8,45,38.0
152,8,46,42.0
152,8,47,50.0
152,9,25,25.0
152,9,26,24.0
152,9,27,20.0
152,9,28,22.0
152,9,29,27.0
152,9,30,27.0
152,9,31,22.0
152,9,32,20.0
152,9,33,21.0
152,9,34,21.0
152,9,35,24.0
152,9,36,22.0
152,9,37,25.0
152,9,38,27.0
152,9,39,30.0
152,9,40,32.0
153,7,43,41.0
153,7,44,43.0
153,7,45,36.0
153,7,46,35.0
153,7,47,44.0
153,7,48,36.0
153,7,49,28.0
153,7,50,35.0
153,7,51,34.0
153,7,52,32.0
153,7,53,39.0
153,7,54,41.0
153,7,55,43.0
153,7,56,49.0
153,8,35,37.0
153,8,36,33.0
153,8,37,27.0
153,8,38,28.0
153,8,39,23.0
153,8,40,23.0
153,8,41,27.0
153,8,42,26.0
153,8,43,27.0
153,8,44,28.0
153,8,45,32.0
153,8,46,39.0
153,8,47,47.0
153,9,25,25.0
153,9,26,20.0
153,9,27,17.0
153,9,28,19.0
153,9,29,21.0
153,9,30,20.0
153,9,31,19.0
153,9,32,19.0
153,9,33,18.0
153,9,34,20.0
153,9,35,24.0
153,9,36,19.0
153,9,37,22.0
153,9,38,27.0
153,9,39,28.0
153,9,40,31.0
154,7,41,46.0
154,7,42,43.0
154,7,43,42.0
154,7,44,42.0
154,7,45,37.0
154,7,46,37.0
154,7,47,40.0
154,7,48,33.0
154,7,49,30.0
154,7,50,33.0
154,7,51,28.0
154,7,52,27.0
154,7,53,35.0
154,7,54,35.0
154,7,55,37.0
154,7,56,43.0
154,7,57,39.0
154,7,58,43.0
154,7,59,56.0
154,7,60,72.0
154,8,30,32.0
154,8,31,33.0
154,8,32,34.0
154,8,33,32.0
154,8,34,32.0
154,8,35,31.0
154,8,36,27.0
154,8,37,22.0
154,8,38,24.0
154,8,39,22.0
154,8,40,22.0
154,8,41,23.0
154,8,42,21.0
154,8,43,20.0
154,8,44,22.0
154,8,45,28.0
154,8,46,33.0
154,8,47,37.0
154,8,48,44.0
154,9,22,27.0
154,9,23,25.0
154,9,24,24.0
154,9,25,25.0
154,9,26,23.0
154,9,27,20.0
154,9,28,20.0
154,9,29,17.0
154,9,30,15.0
154,9,31,15.0
154,9,32,16.0
154,9,33,16.0
154,9,34,18.0
154,9,35,19.0
154,9,36,16.0
154,9,37,17.0
154,9,38,21.0
154,9,39,19.0
154,9,40,27.0
154,10,21,22.0
154,10,22,22.0
154,10,23,29.0
154,10,24,33.0
154,10,25,27.0
154,10,26,28.0
154,10,27,35.0
154,10,28,32.0
154,10,29,31.0
154,10,30,31.0
154,10,31,29.0
154,10,32,36.0
154,10,33,40.0
154,10,34,42.0
155,7,41,45.0
155,7,42,42.0
155,7,43,44.0
155,7,44,43.0
155,7,45,38.0
155,7,46,36.0
155,7,47,35.0
155,7,48,34.0
155,7,49,34.0
155,7,50,32.0
155,7,51,26.0
155,7,52,28.0
155,7,53,31.0
155,7,54,28.0
155,7,55,31.0
155,7,56,36.0
155,7,57,38.0
155,7,58,41.0
155,7,59,48.0
155,7,60,57.0
155,7,61,64.0
155,7,62,71.0
155,7,63,72.0
155,8,30,32.0
155,8,31,32.0
155,8,32,34.0
155,8,33,32.0
155,8,34,31.0
155,8,35,25.0
155,8,36,25.0
155,8,37,22.0
155,8,38,23.0
155,8,39,21.0
155,8,40,21.0
155,8,41,23.0
155,8,42,21.0
155,8,43,19.0
155,8,44,21.0
155,8,45,26.0
155,8,46,25.0
155,8,47,27.0
155,8,48,35.0
155,8,49,37.0
155,8,50,43.0
155,8,51,58.0
155,8,52,67.0
155,9,22,29.0
155,9,23,30.0
155,9,24,26.0
155,9,25,25.0
155,9,26,23.0
155,9,27,24.0
155,9,28,25.0
155,9,29,18.0
155,9,30,14.0
155,9,31,13.0
155,9,32,14.0
155,9,33,14.0
155,9,34,15.0
155,9,35,15.0
155,9,36,14.0
155,9,37,15.0
155,9,38,14.0
155,9,39,12.0
155,9,40,21.0
155,9,41,29.0
155,9,42,35.0
155,10,19,21.0
155,10,20,21.0
155,10,21,20.0
155,10,22,20.0
155,10,23,26.0
155,10,24,28.0
155,10,25,24.0
155,10,26,27.0
155,10,27,31.0
155,10,28,26.0
155,10,29,28.0
155,10,30,30.0
155,10,31,31.0
155,10,32,33.0
155,10,33,34.0
155,10,34,38.0
156,7,41,45.0
156,7,42,43.0
156,7,43,45.0
156,7,44,44.0
156,7,45,39.0
156,7,46,37.0
156,7,47,37.0
156,7,48,37.0
156,7,49,38.0
156,7,50,34.0
156,7,51,27.0
156,7,52,31.0
156,7,53,28.0
156,7,54,27.0
156,7,55,31.0
156,7,56,30.0
156,7,57,37.0
156,7,58,39.0
156,7,59,37.0
156,7,60,45.0
156,7,61,57.0
156,7,62,67.0
156,7,63,66.0
156,8,30,33.0
156,8,31,32.0
156,8,32,33.0
156,8,33,31.0
156,8,34,29.0
156,8,35,24.0
156,8,36,27.0
156,8,37,25.0
156,8,38,25.0
156,8,39,22.0
156,8,40,21.0
156,8,41,22.0
156,8,42,22.0
156,8,43,22.0
156,8,44,22.0
156,8,45,23.0
156,8,46,21.0
156,8,47,23.0
156,8,48,29.0
156,8,49,32.0
156,8,50,35.0
156,8,51,43.0
156,8,52,53.0
156,9,22,29.0
156,9,23,31.0
156,9,24,28.0
156,9,25,25.0
156,9,26,23.0
156,9,27,23.0
156,9,28,23.0
156,9,29,16.0
156,9,30,13.0
156,9,31,12.0
156,9,32,14.0
156,9,33,14.0
156,9,34,13.0
156,9,35,13.0
156,9,36,13.0
156,9,37,13.0
156,9,38,14.0
156,9,39,15.0
156,9,40,20.0
156,9,41,26.0
156,9,42,32.0
156,10,19,21.0
156,10,20,20.0
156,10,21,22.0
156,10,22,22.0
156,10,23,23.0
156,10,24,24.0
156,10,25,23.0
156,10,26,25.0
156,10,27,25.0
156,10,28,22.0
156,10,29,25.0
156,10,30,28.0
156,10,31,31.0
156,10,32,29.0
156,10,33,30.0
156,10,34,34.0
157,7,41,47.0
157,7,42,45.0
157,7,43,46.0
157,7,44,44.0
157,7,45,39.0
157,7,46,36.0
157,7,47,38.0
157,7,48,39.0
157,7,49,40.0
157,7,50,35.0
157,7,51,33.0
157,7,52,36.0
157,7,53,31.0
157,7,54,32.0
157,7,55,33.0
157,7,56,30.0
157,7,57,39.0
157,7,58,39.0
157,7,59,30.0
157,7,60,41.0
157,7,61,54.0
157,7,62,56.0
157,7,63,56.0
157,7,64,55.0
157,8,30,34.0
157,8,31,32.0
157,8,32,31.0
157,8,33,28.0
157,8,34,27.0
157,8,35,25.0
157,8,36,27.0
157,8,37,24.0
157,8,38,26.0
157,8,39,25.0
157,8,40,21.0
157,8,41,19.0
157,8,42,23.0
157,8,43,24.0
157,8,44,21.0
157,8,45,20.0
157,8,46,21.0
157,8,47,21.0
157,8,48,25.0
157,8,49,30.0
157,8,50,34.0
157,8,51,38.0
157,8,52,42.0
157,8,53,39.0
157,8,54,42.0
157,8,55,54.0
157,9,24,28.0
157,9,25,27.0
157,9,26,24.0
157,9,27,22.0
157,9,28,19.0
157,9,29,13.0
157,9,30,11.0
157,9,31,11.0
157,9,32,14.0
157,9,33,13.0
157,9,34,13.0
157,9,35,14.0
157,9,36,13.0
157,9,37,12.0
157,9,38,16.0
157,9,39,17.0
157,9,40,19.0
157,9,41,24.0
157,9,42,26.0
157,10,16,22.0
157,10,17,20.0
157,10,18,20.0
157,10,19,20.0
157,10,20,20.0
157,10,21,23.0
157,10,22,23.0
157,10,23,21.0
157,10,24,21.0
157,10,25,21.0
157,10,26,21.0
157,10,27,21.0
157,10,28,21.0
157,10,29,19.0
157,10,30,24.0
157,10,31,27.0
157,10,32,25.0
157,10,33,29.0
157,10,34,33.0
157,10,35,32.0
157,10,36,31.0
158,7,41,44.0
158,7,42,44.0
158,7,43,44.0
158,7,44,44.0
158,7,45,41.0
158,7,46,38.0
158,7,47,41.0
158,7,48,42.0
158,7,49,40.0
158,7,50,39.0
158,7,51,39.0
158,7,52,38.0
158,7,53,38.0
158,7,54,39.0
158,7,55,36.0
158,7,56,37.0
158,7,57,42.0
158,7,58,38.0
158,7,59,25.0
158,7,60,40.0
158,7,61,48.0
158,7,62,45.0
158,7,63,49.0
158,7,64,50.0
158,8,30,39.0
158,8,31,34.0
158,8,32,31.0
158,8,33,29.0
158,8,34,29.0
158,8,35,28.0
158,8,36,25.0
158,8,37,24.0
158,8,38,28.0
158,8,39,26.0
158,8,40,21.0
158,8,41,20.0
158,8,42,20.0
158,8,43,19.0
158,8,44,18.0
158,8,45,20.0
158,8,46,21.0
158,8,47,21.0
158,8,48,25.0
158,8,49,27.0
158,8,50,29.0
158,8,51,37.0
158,8,52,40.0
158,8,53,37.0
158,8,54,42.0
158,8,55,49.0
158,9,24,28.0
158,9,25,29.0
158,9,26,25.0
158,9,27,23.0
158,9,28,20.0
158,9,29,14.0
158,9,30,14.0
158,9,31,12.0
158,9,32,11.0
158,9,33,11.0
158,9,34,12.0
158,9,35,13.0
158,9,36,14.0
158,9,37,13.0
158,9,38,14.0
158,9,39,14.0
158,9,40,17.0
158,9,41,21.0
158,9,42,21.0
158,10,16,21.0
158,10,17,20.0
158,10,18,19.0
158,10,19,19.0
158,10,20,18.0
158,10,21,20.0
158,10,22,20.0
158,10,23,19.0
158,10,24,21.0
158,10,25,21.0
158,10,26,19.0
158,10,27,18.0
158,10,28,20.0
158,10,29,14.0
158,10,30,17.0
158,10,31,20.0
158,10,32,21.0
158,10,33,27.0
158,10,34,30.0
158,10,35,33.0
158,10,36,34.0
159,7,43,45.0
159,7,44,45.0
159,7,45,48.0
159,7,46,47.0
159,7,47,49.0
159,7,48,48.0
159,7,49,43.0
159,7,50,45.0
159,7,51,45.0
159,7,52,40.0
159,7,53,45.0
159,7,54,44.0
159,7,55,42.0
159,7,56,41.0
159,7,57,39.0
159,7,58,33.0
159,7,59,27.0
159,7,60,42.0
159,7,61,41.0
159,7,62,44.0
159,7,63,48.0
159,7,64,47.0
159,8,32,34.0
159,8,33,34.0
159,8,34,35.0
159,8,35,28.0
159,8,36,25.0
159,8,37,28.0
159,8,38,27.0
159,8,39,23.0
159,8,40,24.0
159,8,41,26.0
159,8,42,23.0
159,8,43,21.0
159,8,44,22.0
159,8,45,23.0
159,8,46,23.0
159,8,47,24.0
159,8,48,26.0
159,8,49,24.0
159,8,50,28.0
159,8,51,36.0
159,8,52,36.0
159,8,53,37.0
159,8,54,42.0
159,8,55,45.0
159,8,56,51.0
159,9,24,30.0
159,9,25,27.0
159,9,26,20.0
159,9,27,18.0
159,9,28,21.0
159,9,29,17.0
159,9,30,15.0
159,9,31,12.0
159,9,32,11.0
159,9,33,11.0
159,9,34,10.0
159,9,35,11.0
159,9,36,14.0
159,9,37,14.0
159,9,38,14.0
159,9,39,15.0
159,9,40,18.0
159,9,41,20.0
159,9,42,22.0
159,9,43,29.0
159,9,44,34.0
159,10,14,24.0
159,10,15,25.0
159,10,16,22.0
159,10,17,23.0
159,10,18,22.0
159,10,19,19.0
159,10,20,18.0
159,10,21,19.0
159,10,22,18.0
159,10,23,18.0
159,10,24,21.0
159,10,25,19.0
159,10,26,14.0
159,10,27,14.0
159,10,28,17.0
159,10,29,14.0
159,10,30,16.0
159,10,31,17.0
159,10,32,20.0
159,10,33,24.0
159,10,34,27.0
159,10,35,34.0
159,10,36,36.0
160,7,45,49.0
160,7,46,50.0
160,7,47,53.0
160,7,48,55.0
160,7,49,49.0
160,7,50,50.0
160,7,51,53.0
160,7,52,48.0
160,7,53,48.0
160,7,54,50.0
160,7,55,48.0
160,7,56,38.0
160,7,57,35.0
160,7,58,39.0
160,7,59,44.0
160,7,60,49.0
160,7,61,36.0
160,7,62,41.0
160,7,63,46.0
160,7,64,48.0
160,8,33,37.0
160,8,34,38.0
160,8,35,29.0
160,8,36,26.0
160,8,37,33.0
160,8,38,30.0
160,8,39,26.0
160,8,40,29.0
160,8,41,30.0
160,8,42,27.0
160,8,43,23.0
160,8,44,24.0
160,8,45,26.0
160,8,46,27.0
160,8,47,28.0
160,8,48,27.0
160,8,49,28.0
160,8,50,36.0
160,8,51,35.0
160,8,52,32.0
160,8,53,38.0
160,8,54,43.0
160,8,55,43.0
160,8,56,50.0
160,9,25,28.0
160,9,26,19.0
160,9,27,20.0
160,9,28,24.0
160,9,29,17.0
160,9,30,14.0
160,9,31,14.0
160,9,32,13.0
160,9,33,12.0
160,9,34,11.0
160,9,35,12.0
160,9,36,14.0
160,9,37,15.0
160,9,38,17.0
160,9,39,20.0
160,9,40,21.0
160,9,41,20.0
160,9,42,23.0
160,9,43,30.0
160,9,44,37.0
160,10,14,24.0
160,10,15,25.0
160,10,16,22.0
160,10,17,24.0
160,10,18,23.0
160,10,19,19.0
160,10,20,19.0
160,10,21,20.0
160,10,22,17.0
160,10,23,16.0
160,10,24,19.0
160,10,25,17.0
160,10,26,13.0
160,10,27,14.0
160,10,28,16.0
160,10,29,15.0
160,10,30,18.0
160,10,31,16.0
160,10,32,18.0
160,10,33,22.0
160,10,34,27.0
160,10,35,32.0
160,10,36,35.0
161,7,45,54.0
161,7,46,53.0
161,7,47,53.0
161,7,48,55.0
161,7,49,52.0
161,7,50,55.0
161,7,51,57.0
161,7,52,51.0
161,7,53,47.0
161,7,54,52.0
161,7,55,50.0
161,7,56,41.0
161,7,57,40.0
161,7,58,47.0
161,7,59,54.0
161,7,60,49.0
161,7,61,36.0
161,7,62,42.0
161,7,63,51.0
161,7,64,56.0
161,8,33,41.0
161,8,34,42.0
161,8,35,35.0
161,8,36,30.0
161,8,37,36.0
161,8,38,34.0
161,8,39,33.0
161,8,40,32.0
161,8,41,27.0
161,8,42,25.0
161,8,43,27.0
161,8,44,29.0
161,8,45,28.0
161,8,46,26.0
161,8,47,28.0
161,8,48,28.0
161,8,49,30.0
161,8,50,34.0
161,8,51,32.0
161,8,52,33.0
161,8,53,41.0
161,8,54,46.0
161,8,55,44.0
161,8,56,46.0
161,9,25,32.0
161,9,26,25.0
161,9,27,27.0
161,9,28,26.0
161,9,29,17.0
161,9,30,16.0
161,9,31,17.0
161,9,32,15.0
161,9,33,13.0
161,9,34,12.0
161,9,35,13.0
161,9,36,15.0
161,9,37,14.0
161,9,38,12.0
161,9,39,16.0
161,9,40,19.0
161,9,41,20.0
161,9,42,21.0
161,9,43,28.0
161,9,44,36.0
161,10,14,23.0
161,10,15,23.0
161,10,16,20.0
161,10,17,22.0
161,10,18,21.0
161,10,19,18.0
161,10,20,19.0
161,10,21,20.0
161,10,22,16.0
161,10,23,15.0
161,10,24,18.0
161,10,25,17.0
161,10,26,13.0
161,10,27,15.0
161,10,28,14.0
161,10,29,15.0
161,10,30,17.0
161,10,31,16.0
161,10,32,19.0
161,10,33,19.0
161,10,34,23.0
161,10,35,28.0
161,10,36,35.0
162,7,48,51.0
162,7,49,52.0
162,7,50,56.0
162,7,51,56.0
162,7,52,54.0
162,7,53,50.0
162,7,54,50.0
162,7,55,54.0
162,7,56,51.0
162,7,57,49.0
162,7,58,49.0
162,7,59,51.0
162,7,60,46.0
162,7,61,39.0
162,7,62,46.0
162,7,63,59.0
162,8,37,43.0
162,8,38,39.0
162,8,39,36.0
162,8,40,32.0
162,8,41,27.0
162,8,42,28.0
162,8,43,32.0
162,8,44,31.0
162,8,45,29.0
162,8,46,30.0
162,8,47,32.0
162,8,48,28.0
162,8,49,26.0
162,8,50,31.0
162,8,51,32.0
162,8,52,36.0
162,8,53,40.0
162,8,54,44.0
162,8,55,47.0
162,9,25,34.0
162,9,26,29.0
162,9,27,30.0
162,9,28,27.0
162,9,29,20.0
162,9,30,19.0
162,9,31,18.0
162,9,32,15.0
162,9,33,14.0
162,9,34,15.0
162,9,35,12.0
162,9,36,13.0
162,9,37,14.0
162,9,38,9.0
162,9,39,10.0
162,9,40,17.0
162,9,41,20.0
162,9,42,22.0
162,9,43,28.0
162,9,44,37.0
162,10,14,20.0
162,10,15,19.0
162,10,16,18.0
162,10,17,19.0
162,10,18,18.0
162,10,19,17.0
162,10,20,16.0
162,10,21,15.0
162,10,22,15.0
162,10,23,13.0
162,10,24,16.0
162,10,25,14.0
162,10,26,11.0
162,10,27,14.0
162,10,28,14.0
162,10,29,14.0
162,10,30,12.0
162,10,31,16.0
162,10,32,20.0
162,10,33,19.0
162,10,34,25.0
162,10,35,30.0
162,10,36,34.0
163,7,48,51.0
163,7,49,50.0
163,7,50,55.0
163,7,51,52.0
163,7,52,54.0
163,7,53,52.0
163,7,54,51.0
163,7,55,61.0
163,7,56,54.0
163,7,57,50.0
163,7,58,51.0
163,7,59,54.0
163,7,60,50.0
163,7,61,45.0
163,7,62,49.0
163,7,63,59.0
163,8,37,51.0
163,8,38,46.0
163,8,39,38.0
163,8,40,33.0
163,8,41,30.0
163,8,42,32.0
163,8,43,34.0
163,8,44,31.0
163,8,45,29.0
163,8,46,33.0
163,8,47,35.0
163,8,48,31.0
163,8,49,31.0
163,8,50,40.0
163,8,51,38.0
163,8,52,45.0
163,8,53,52.0
163,8,54,50.0
163,8,55,53.0
163,9,25,34.0
163,9,26,33.0
163,9,27,32.0
163,9,28,28.0
163,9,29,26.0
163,9,30,23.0
163,9,31,20.0
163,9,32,18.0
163,9,33,18.0
163,9,34,18.0
163,9,35,15.0
163,9,36,16.0
163,9,37,18.0
163,9,38,14.0
163,9,39,13.0
163,9,40,19.0
163,9,41,22.0
163,9,42,25.0
163,9,43,31.0
163,9,44,40.0
163,10,14,19.0
163,10,15,17.0
163,10,16,19.0
163,10,17,18.0
163,10,18,17.0
163,10,19,16.0
163,10,20,13.0
163,10,21,13.0
163,10,22,13.0
163,10,23,11.0
163,10,24,15.0
163,10,25,13.0
163,10,26,12.0
163,10,27,14.0
163,10,28,14.0
163,10,29,13.0
163,10,30,14.0
163,10,31,16.0
163,10,32,17.0
163,10,33,18.0
163,10,34,24.0
163,10,35,29.0
163,10,36,32.0
164,8,38,53.0
164,8,39,42.0
164,8,40,38.0
164,8,41,35.0
164,8,42,35.0
164,8,43,36.0
164,8,44,35.0
164,8,45,31.0
164,8,46,29.0
164,8,47,33.0
164,8,48,34.0
164,8,49,38.0
164,8,50,46.0
164,8,51,44.0
164,8,52,54.0
164,9,29,30.0
164,9,30,27.0
164,9,31,25.0
164,9,32,24.0
164,9,33,21.0
164,9,34,21.0
164,9,35,20.0
164,9,36,18.0
164,9,37,19.0
164,9,38,20.0
164,9,39,18.0
164,9,40,19.0
164,9,41,22.0
164,9,42,26.0
164,9,43,30.0
164,9,44,38.0
164,10,13,16.0
164,10,14,18.0
164,10,15,16.0
164,10,16,19.0
164,10,17,18.0
164,10,18,18.0
164,10,19,16.0
164,10,20,13.0
164,10,21,13.0
164,10,22,13.0
164,10,23,11.0
164,10,24,15.0
164,10,25,16.0
164,10,26,17.0
164,10,27,15.0
164,10,28,12.0
164,10,29,13.0
164,10,30,15.0
164,10,31,15.0
164,10,32,15.0
164,10,33,15.0
164,10,34,21.0
164,10,35,28.0
164,10,36,31.0
164,10,37,35.0
165,8,41,42.0
165,8,42,38.0
165,8,43,40.0
165,8,44,40.0
165,8,45,34.0
165,8,46,31.0
165,8,47,32.0
165,8,48,34.0
165,8,49,36.0
165,8,50,41.0
165,8,51,47.0
165,8,52,56.0
165,9,33,27.0
165,9,34,24.0
165,9,35,25.0
165,9,36,24.0
165,9,37,24.0
165,9,38,23.0
165,9,39,20.0
165,9,40,18.0
165,9,41,20.0
165,9,42,25.0
165,9,43,29.0
165,9,44,33.0
165,10,13,18.0
165,10,14,19.0
165,10,15,18.0
165,10,16,17.0
165,10,17,16.0
165,10,18,17.0
165,10,19,16.0
165,10,20,13.0
165,10,21,14.0
165,10,22,14.0
165,10,23,13.0
165,10,24,16.0
165,10,25,18.0
165,10,26,17.0
165,10,27,15.0
165,10,28,11.0
165,10,29,12.0
165,10,30,14.0
165,10,31,16.0
165,10,32,15.0
165,10,33,15.0
165,10,34,19.0
165,10,35,23.0
165,10,36,26.0
165,10,37,28.0
165,10,38,32.0
165,10,39,40.0
166,8,41,51.0
166,8,42,46.0
166,8,43,44.0
166,8,44,42.0
166,8,45,39.0
166,8,46,38.0
166,8,47,36.0
166,8,48,36.0
166,8,49,38.0
166,8,50,43.0
166,8,51,48.0
166,8,52,54.0
166,9,33,34.0
166,9,34,28.0
166,9,35,28.0
166,9,36,36.0
166,9,37,36.0
166,9,38,28.0
166,9,39,25.0
166,9,40,22.0
166,9,41,19.0
166,9,42,21.0
166,9,43,23.0
166,9,44,27.0
166,10,13,19.0
166,10,14,18.0
166,10,15,17.0
166,10,16,14.0
166,10,17,13.0
166,10,18,15.0
166,10,19,14.0
166,10,20,12.0
166,10,21,12.0
166,10,22,15.0
166,10,23,14.0
166,10,24,15.0
166,10,25,15.0
166,10,26,13.0
166,10,27,13.0
166,10,28,13.0
166,10,29,13.0
166,10,30,13.0
166,10,31,17.0
166,10,32,16.0
166,10,33,16.0
166,10,34,18.0
166,10,35,17.0
166,10,36,19.0
166,10,37,23.0
166,10,38,28.0
166,10,39,33.0
167,8,43,51.0
167,8,44,50.0
167,8,45,43.0
167,8,46,42.0
167,8,47,45.0
167,8,48,42.0
167,8,49,41.0
167,8,50,47.0
167,9,37,46.0
167,9,38,35.0
167,9,39,32.0
167,9,40,30.0
167,9,41,23.0
167,9,42,22.0
167,9,43,23.0
167,9,44,25.0
167,9,45,32.0
167,10,22,15.0
167,10,23,12.0
167,10,24,13.0
167,10,25,15.0
167,10,26,13.0
167,10,27,13.0
167,10,28,17.0
167,10,29,15.0
167,10,30,13.0
167,10,31,18.0
167,10,32,18.0
167,10,33,17.0
167,10,34,16.0
167,10,35,16.0
167,10,36,19.0
167,10,37,20.0
167,10,38,24.0
167,10,39,27.0
167,10,40,30.0
168,8,46,46.0
168,8,47,55.0
168,8,48,51.0
168,9,40,39.0
168,9,41,32.0
168,9,42,30.0
168,9,43,32.0
168,9,44,28.0
168,9,45,30.0
168,9,46,33.0
168,9,47,36.0
168,10,32,21.0
168,10,33,22.0
168,10,34,19.0
168,10,35,21.0
168,10,36,25.0
168,10,37,21.0
168,10,38,22.0
168,10,39,24.0
168,10,40,24.0
169,8,46,49.0
169,8,47,58.0
169,8,48,59.0
169,9,40,50.0
169,9,41,43.0
169,9,42,39.0
169,9,43,40.0
169,9,44,35.0
169,9,45,35.0
169,9,46,38.0
169,9,47,37.0
169,10,32,25.0
169,10,33,30.0
169,10,34,28.0
169,10,35,25.0
169,10,36,28.0
169,10,37,26.0
169,10,38,25.0
169,10,39,28.0
169,10,40,28.0
170,9,43,46.0
170,9,44,46.0
170,9,45,42.0
170,9,46,42.0
170,9,47,40.0
170,10,37,31.0
170,10,38,31.0
170,10,39,32.0
170,10,40,30.0
170,10,41,32.0
170,10,42,30.0
170,11,32,26.0
170,11,35,29.0
170,11,36,29.0
171,9,43,53.0
171,9,44,54.0
171,9,45,48.0
171,9,46,47.0
171,9,47,46.0
171,10,37,39.0
171,10,38,38.0
171,10,39,37.0
171,10,40,38.0
171,10,41,40.0
171,10,42,35.0
171,11,32,27.0
171,11,35,30.0
171,11,36,29.0
172,9,48,55.0
