x,y,z,intensity
7.5,10.0,-95.625,45.0
7.5,10.0,-93.75,46.0
7.5,10.0,-91.875,41.0
7.5,10.0,-90.0,47.0
7.5,10.0,-88.125,51.0
7.5,10.0,-86.25,53.0
7.5,10.0,-84.375,64.0
7.5,10.0,-82.5,78.0
7.5,10.0,-80.625,73.0
7.5,10.0,-78.75,76.0
7.5,10.0,-76.875,69.0
7.5,10.0,-75.0,105.0
7.5,20.0,-121.875,54.0
7.5,20.0,-120.0,55.0
7.5,20.0,-118.125,60.0
7.5,20.0,-116.25,55.0
7.5,20.0,-114.375,57.0
7.5,20.0,-112.5,58.0
7.5,20.0,-110.625,58.0
7.5,20.0,-108.75,59.0
7.5,20.0,-106.875,58.0
7.5,20.0,-105.0,66.0
7.5,20.0,-103.125,65.0
9.375,-20.0,-58.125,110.0
9.375,-20.0,-56.25,105.0
9.375,-20.0,-54.375,99.0
9.375,-20.0,-52.5,95.0
9.375,-20.0,-50.625,88.0
9.375,-20.0,-48.75,86.0
9.375,-20.0,-46.875,84.0
9.375,-20.0,-45.0,96.0
9.375,-20.0,-43.125,100.0
9.375,-20.0,-41.25,112.0
9.375,-10.0,-82.5,115.0
9.375,-10.0,-80.625,94.0
9.375,-10.0,-78.75,103.0
9.375,-10.0,-76.875,111.0
9.375,-10.0,-75.0,96.0
9.375,-10.0,-73.125,98.0
9.375,-10.0,-71.25,89.0
9.375,-10.0,-69.375,75.0
9.375,-10.0,-67.5,64.0
9.375,-10.0,-65.625,70.0
9.375,-10.0,-63.75,74.0
9.375,-10.0,-61.875,65.0
9.375,-10.0,-60.0,61.0
9.375,-10.0,-58.125,57.0
9.375,-10.0,-56.25,65.0
9.375,-10.0,-54.375,63.0
9.375,-10.0,-52.5,71.0
9.375,-10.0,-50.625,81.0
9.375,-10.0,-48.75,100.0
9.375,-10.0,-46.875,114.0
9.375,-10.0,-45.0,146.0
9.375,0.0,-116.25,111.0
9.375,0.0,-114.375,111.0
9.375,0.0,-112.5,111.0
9.375,0.0,-110.625,102.0
9.375,0.0,-108.75,103.0
9.375,0.0,-106.875,94.0
9.375,0.0,-105.0,93.0
9.375,0.0,-103.125,96.0
9.375,0.0,-101.25,86.0
9.375,0.0,-99.375,88.0
9.375,0.0,-97.5,79.0
9.375,0.0,-95.625,67.0
9.375,0.0,-93.75,64.0
9.375,0.0,-91.875,63.0
9.375,0.0,-90.0,62.0
9.375,0.0,-88.125,45.0
9.375,0.0,-86.25,43.0
9.375,0.0,-84.375,50.0
9.375,0.0,-82.5,48.0
9.375,0.0,-80.625,43.0
9.375,0.0,-78.75,45.0
9.375,0.0,-76.875,63.0
9.375,0.0,-75.0,58.0
9.375,0.0,-73.125,42.0
9.375,0.0,-71.25,55.0
9.375,0.0,-69.375,52.0
9.375,0.0,-67.5,54.0
9.375,0.0,-65.625,71.0
9.375,0.0,-63.75,78.0
9.375,0.0,-61.875,85.0
9.375,0.0,-60.0,88.0
9.375,10.0,-121.875,48.0
9.375,10.0,-120.0,39.0
9.375,10.0,-118.125,36.0
9.375,10.0,-116.25,33.0
9.375,10.0,-114.375,33.0
9.375,10.0,-112.5,44.0
9.375,10.0,-110.625,42.0
9.375,10.0,-108.75,40.0
9.375,10.0,-106.875,43.0
9.375,10.0,-105.0,39.0
9.375,10.0,-103.125,48.0
9.375,10.0,-101.25,46.0
9.375,10.0,-99.375,42.0
9.375,10.0,-97.5,55.0
9.375,10.0,-95.625,46.0
9.375,10.0,-93.75,44.0
9.375,10.0,-91.875,47.0
9.375,10.0,-90.0,49.0
9.375,10.0,-88.125,55.0
9.375,10.0,-86.25,59.0
9.375,10.0,-84.375,59.0
9.375,10.0,-82.5,78.0
9.375,10.0,-80.625,87.0
9.375,10.0,-78.75,102.0
9.375,10.0,-76.875,85.0
9.375,10.0,-75.0,127.0
9.375,20.0,-121.875,44.0
9.375,20.0,-120.0,43.0
9.375,20.0,-118.125,50.0
9.375,20.0,-116.25,48.0
9.375,20.0,-114.375,50.0
9.375,20.0,-112.5,51.0
9.375,20.0,-110.625,53.0
9.375,20.0,-108.75,59.0
9.375,20.0,-106.875,53.0
9.375,20.0,-105.0,61.0
9.375,20.0,-103.125,63.0
11.25,-20.0,-58.125,108.0
11.25,-20.0,-56.25,101.0
11.25,-20.0,-54.375,92.0
11.25,-20.0,-52.5,93.0
11.25,-20.0,-50.625,91.0
11.25,-20.0,-48.75,94.0
11.25,-10.0,-86.25,123.0
11.25,-10.0,-84.375,126.0
11.25,-10.0,-82.5,115.0
11.25,-10.0,-80.625,88.0
11.25,-10.0,-78.75,102.0
11.25,-10.0,-76.875,117.0
11.25,-10.0,-75.0,91.0
11.25,-10.0,-73.125,73.0
11.25,-10.0,-71.25,83.0
11.25,-10.0,-69.375,81.0
11.25,-10.0,-67.5,64.0
11.25,-10.0,-65.625,52.0
11.25,-10.0,-63.75,60.0
11.25,-10.0,-61.875,61.0
11.25,-10.0,-60.0,61.0
11.25,-10.0,-58.125,66.0
11.25,-10.0,-56.25,68.0
11.25,-10.0,-54.375,67.0
11.25,0.0,-118.125,113.0
11.25,0.0,-116.25,112.0
11.25,0.0,-114.375,109.0
11.25,0.0,-112.5,105.0
11.25,0.0,-110.625,98.0
11.25,0.0,-108.75,96.0
11.25,0.0,-106.875,87.0
11.25,0.0,-105.0,84.0
11.25,0.0,-103.125,86.0
11.25,0.0,-101.25,77.0
11.25,0.0,-99.375,70.0
11.25,0.0,-97.5,64.0
11.25,0.0,-95.625,64.0
11.25,0.0,-93.75,52.0
11.25,0.0,-91.875,49.0
11.25,0.0,-90.0,59.0
11.25,0.0,-88.125,48.0
11.25,0.0,-86.25,51.0
11.25,0.0,-84.375,47.0
11.25,0.0,-82.5,46.0
11.25,0.0,-80.625,51.0
11.25,0.0,-78.75,43.0
11.25,0.0,-76.875,51.0
11.25,0.0,-75.0,55.0
11.25,0.0,-73.125,46.0
11.25,0.0,-71.25,48.0
11.25,0.0,-69.375,60.0
11.25,0.0,-67.5,66.0
11.25,0.0,-65.625,75.0
11.25,10.0,-127.5,71.0
11.25,10.0,-125.625,54.0
11.25,10.0,-123.75,42.0
11.25,10.0,-121.875,41.0
11.25,10.0,-120.0,34.0
11.25,10.0,-118.125,32.0
11.25,10.0,-116.25,32.0
11.25,10.0,-114.375,32.0
11.25,10.0,-112.5,39.0
11.25,10.0,-110.625,40.0
11.25,10.0,-108.75,37.0
11.25,10.0,-106.875,41.0
11.25,10.0,-105.0,38.0
11.25,10.0,-103.125,40.0
11.25,10.0,-101.25,44.0
11.25,10.0,-99.375,35.0
11.25,10.0,-97.5,45.0
11.25,10.0,-95.625,48.0
11.25,10.0,-93.75,49.0
11.25,10.0,-91.875,49.0
11.25,10.0,-90.0,47.0
11.25,10.0,-88.125,54.0
11.25,10.0,-86.25,69.0
11.25,10.0,-84.375,70.0
11.25,10.0,-82.5,72.0
11.25,10.0,-80.625,89.0
11.25,10.0,-78.75,124.0
11.25,20.0,-127.5,44.0
11.25,20.0,-125.625,29.0
11.25,20.0,-123.75,29.0
11.25,20.0,-121.875,41.0
11.25,20.0,-120.0,43.0
11.25,20.0,-118.125,46.0
11.25,20.0,-116.25,44.0
11.25,20.0,-114.375,49.0
11.25,20.0,-112.5,49.0
11.25,20.0,-110.625,48.0
11.25,20.0,-108.75,58.0
11.25,20.0,-106.875,51.0
11.25,20.0,-105.0,53.0
11.25,20.0,-103.125,61.0
13.125,-20.0,-58.125,115.0
13.125,-20.0,-56.25,106.0
13.125,-20.0,-54.375,99.0
13.125,-20.0,-52.5,109.0
13.125,-20.0,-50.625,118.0
13.125,-20.0,-48.75,132.0
13.125,-10.0,-86.25,127.0
13.125,-10.0,-84.375,120.0
13.125,-10.0,-82.5,117.0
13.125,-10.0,-80.625,90.0
13.125,-10.0,-78.75,83.0
13.125,-10.0,-76.875,103.0
13.125,-10.0,-75.0,92.0
13.125,-10.0,-73.125,69.0
13.125,-10.0,-71.25,77.0
13.125,-10.0,-69.375,71.0
13.125,-10.0,-67.5,64.0
13.125,-10.0,-65.625,50.0
13.125,-10.0,-63.75,59.0
13.125,-10.0,-61.875,60.0
13.125,-10.0,-60.0,61.0
13.125,-10.0,-58.125,74.0
13.125,-10.0,-56.25,70.0
13.125,-10.0,-54.375,78.0
13.125,0.0,-118.125,105.0
13.125,0.0,-116.25,110.0
13.125,0.0,-114.375,103.0
13.125,0.0,-112.5,96.0
13.125,0.0,-110.625,94.0
13.125,0.0,-108.75,91.0
13.125,0.0,-106.875,83.0
13.125,0.0,-105.0,78.0
13.125,0.0,-103.125,77.0
13.125,0.0,-101.25,72.0
13.125,0.0,-99.375,68.0
13.125,0.0,-97.5,62.0
13.125,0.0,-95.625,62.0
13.125,0.0,-93.75,45.0
13.125,0.0,-91.875,40.0
13.125,0.0,-90.0,50.0
13.125,0.0,-88.125,41.0
13.125,0.0,-86.25,49.0
13.125,0.0,-84.375,48.0
13.125,0.0,-82.5,48.0
13.125,0.0,-80.625,53.0
13.125,0.0,-78.75,52.0
13.125,0.0,-76.875,47.0
13.125,0.0,-75.0,48.0
13.125,0.0,-73.125,55.0
13.125,0.0,-71.25,52.0
13.125,0.0,-69.375,61.0
13.125,0.0,-67.5,77.0
13.125,0.0,-65.625,85.0
13.125,10.0,-127.5,52.0
13.125,10.0,-125.625,43.0
13.125,10.0,-123.75,34.0
13.125,10.0,-121.875,31.0
13.125,10.0,-120.0,32.0
13.125,10.0,-118.125,30.0
13.125,10.0,-116.25,32.0
13.125,10.0,-114.375,34.0
13.125,10.0,-112.5,35.0
13.125,10.0,-110.625,35.0
13.125,10.0,-108.75,34.0
13.125,10.0,-106.875,34.0
13.125,10.0,-105.0,37.0
13.125,10.0,-103.125,37.0
13.125,10.0,-101.25,41.0
13.125,10.0,-99.375,38.0
13.125,10.0,-97.5,42.0
13.125,10.0,-95.625,50.0
13.125,10.0,-93.75,54.0
13.125,10.0,-91.875,51.0
13.125,10.0,-90.0,61.0
13.125,10.0,-88.125,63.0
13.125,10.0,-86.25,67.0
13.125,10.0,-84.375,84.0
13.125,10.0,-82.5,79.0
13.125,10.0,-80.625,106.0
13.125,10.0,-78.75,150.0
13.125,20.0,-127.5,35.0
13.125,20.0,-125.625,32.0
13.125,20.0,-123.75,31.0
13.125,20.0,-121.875,38.0
13.125,20.0,-120.0,47.0
13.125,20.0,-118.125,51.0
13.125,20.0,-116.25,44.0
13.125,20.0,-114.375,46.0
13.125,20.0,-112.5,49.0
13.125,20.0,-110.625,43.0
13.125,20.0,-108.75,52.0
13.125,20.0,-106.875,53.0
13.125,20.0,-105.0,53.0
13.125,20.0,-103.125,62.0
15.0,-10.0,-86.25,128.0
15.0,-10.0,-84.375,120.0
15.0,-10.0,-82.5,110.0
15.0,-10.0,-80.625,102.0
15.0,-10.0,-78.75,86.0
15.0,-10.0,-76.875,81.0
15.0,-10.0,-75.0,83.0
15.0,-10.0,-73.125,69.0
15.0,-10.0,-71.25,75.0
15.0,-10.0,-69.375,67.0
15.0,-10.0,-67.5,71.0
15.0,-10.0,-65.625,69.0
15.0,-10.0,-63.75,66.0
15.0,-10.0,-61.875,63.0
15.0,-10.0,-60.0,66.0
15.0,-10.0,-58.125,77.0
15.0,-10.0,-56.25,81.0
15.0,0.0,-121.875,110.0
15.0,0.0,-120.0,109.0
15.0,0.0,-118.125,107.0
15.0,0.0,-116.25,104.0
15.0,0.0,-114.375,97.0
15.0,0.0,-112.5,91.0
15.0,0.0,-110.625,87.0
15.0,0.0,-108.75,82.0
15.0,0.0,-106.875,77.0
15.0,0.0,-105.0,72.0
15.0,0.0,-103.125,66.0
15.0,0.0,-101.25,60.0
15.0,0.0,-99.375,66.0
15.0,0.0,-97.5,61.0
15.0,0.0,-95.625,54.0
15.0,0.0,-93.75,43.0
15.0,0.0,-91.875,41.0
15.0,0.0,-90.0,50.0
15.0,0.0,-88.125,41.0
15.0,0.0,-86.25,45.0
15.0,0.0,-84.375,45.0
15.0,0.0,-82.5,51.0
15.0,0.0,-80.625,49.0
15.0,0.0,-78.75,54.0
15.0,0.0,-76.875,47.0
15.0,0.0,-75.0,48.0
15.0,0.0,-73.125,61.0
15.0,0.0,-71.25,62.0
15.0,0.0,-69.375,73.0
15.0,10.0,-131.25,64.0
15.0,10.0,-129.375,50.0
15.0,10.0,-127.5,38.0
15.0,10.0,-125.625,35.0
15.0,10.0,-123.75,35.0
15.0,10.0,-121.875,29.0
15.0,10.0,-120.0,29.0
15.0,10.0,-118.125,30.0
15.0,10.0,-116.25,33.0
15.0,10.0,-114.375,36.0
15.0,10.0,-112.5,30.0
15.0,10.0,-110.625,31.0
15.0,10.0,-108.75,35.0
15.0,10.0,-106.875,29.0
15.0,10.0,-105.0,35.0
15.0,10.0,-103.125,39.0
15.0,10.0,-101.25,37.0
15.0,10.0,-99.375,43.0
15.0,10.0,-97.5,47.0
15.0,10.0,-95.625,51.0
15.0,10.0,-93.75,54.0
15.0,10.0,-91.875,50.0
15.0,10.0,-90.0,73.0
15.0,10.0,-88.125,77.0
15.0,10.0,-86.25,71.0
15.0,10.0,-84.375,90.0
15.0,10.0,-82.5,89.0
15.0,10.0,-80.625,125.0
15.0,20.0,-136.875,46.0
15.0,20.0,-135.0,41.0
15.0,20.0,-133.125,39.0
15.0,20.0,-131.25,41.0
15.0,20.0,-129.375,38.0
15.0,20.0,-127.5,37.0
15.0,20.0,-125.625,38.0
15.0,20.0,-123.75,33.0
15.0,20.0,-121.875,28.0
15.0,20.0,-120.0,39.0
15.0,20.0,-118.125,49.0
15.0,20.0,-116.25,45.0
15.0,20.0,-114.375,45.0
15.0,20.0,-112.5,48.0
15.0,20.0,-110.625,48.0
15.0,20.0,-108.75,54.0
15.0,20.0,-106.875,56.0
15.0,20.0,-105.0,61.0
16.875,-10.0,-86.25,124.0
16.875,-10.0,-84.375,123.0
16.875,-10.0,-82.5,106.0
16.875,-10.0,-80.625,103.0
16.875,-10.0,-78.75,100.0
16.875,-10.0,-76.875,79.0
16.875,-10.0,-75.0,75.0
16.875,-10.0,-73.125,69.0
16.875,-10.0,-71.25,67.0
16.875,-10.0,-69.375,64.0
16.875,-10.0,-67.5,72.0
16.875,-10.0,-65.625,75.0
16.875,-10.0,-63.75,71.0
16.875,0.0,-121.875,111.0
16.875,0.0,-120.0,108.0
16.875,0.0,-118.125,103.0
16.875,0.0,-116.25,94.0
16.875,0.0,-114.375,87.0
16.875,0.0,-112.5,80.0
16.875,0.0,-110.625,78.0
16.875,0.0,-108.75,75.0
16.875,0.0,-106.875,67.0
16.875,0.0,-105.0,60.0
16.875,0.0,-103.125,55.0
16.875,0.0,-101.25,49.0
16.875,0.0,-99.375,53.0
16.875,0.0,-97.5,49.0
16.875,0.0,-95.625,49.0
16.875,0.0,-93.75,47.0
16.875,0.0,-91.875,40.0
16.875,0.0,-90.0,50.0
16.875,0.0,-88.125,43.0
16.875,0.0,-86.25,45.0
16.875,0.0,-84.375,40.0
16.875,0.0,-82.5,52.0
16.875,0.0,-80.625,56.0
16.875,0.0,-78.75,61.0
16.875,0.0,-76.875,53.0
16.875,0.0,-75.0,58.0
16.875,10.0,-133.125,61.0
16.875,10.0,-131.25,48.0
16.875,10.0,-129.375,37.0
16.875,10.0,-127.5,29.0
16.875,10.0,-125.625,28.0
16.875,10.0,-123.75,33.0
16.875,10.0,-121.875,31.0
16.875,10.0,-120.0,32.0
16.875,10.0,-118.125,30.0
16.875,10.0,-116.25,29.0
16.875,10.0,-114.375,32.0
16.875,10.0,-112.5,27.0
16.875,10.0,-110.625,32.0
16.875,10.0,-108.75,39.0
16.875,10.0,-106.875,27.0
16.875,10.0,-105.0,30.0
16.875,10.0,-103.125,38.0
16.875,10.0,-101.25,36.0
16.875,10.0,-99.375,43.0
16.875,10.0,-97.5,42.0
16.875,10.0,-95.625,48.0
16.875,10.0,-93.75,59.0
16.875,10.0,-91.875,55.0
16.875,10.0,-90.0,72.0
16.875,10.0,-88.125,88.0
16.875,10.0,-86.25,92.0
16.875,10.0,-84.375,95.0
16.875,20.0,-142.5,48.0
16.875,20.0,-140.625,43.0
16.875,20.0,-138.75,37.0
16.875,20.0,-136.875,37.0
16.875,20.0,-135.0,35.0
16.875,20.0,-133.125,30.0
16.875,20.0,-131.25,30.0
16.875,20.0,-129.375,33.0
16.875,20.0,-127.5,31.0
16.875,20.0,-125.625,34.0
16.875,20.0,-123.75,37.0
16.875,20.0,-121.875,29.0
16.875,20.0,-120.0,32.0
16.875,20.0,-118.125,42.0
16.875,20.0,-116.25,48.0
16.875,20.0,-114.375,50.0
16.875,20.0,-112.5,49.0
16.875,20.0,-110.625,62.0
16.875,20.0,-108.75,65.0
18.75,-10.0,-86.25,124.0
18.75,-10.0,-84.375,119.0
18.75,-10.0,-82.5,113.0
18.75,-10.0,-80.625,100.0
18.75,-10.0,-78.75,97.0
18.75,-10.0,-76.875,81.0
18.75,-10.0,-75.0,82.0
18.75,-10.0,-73.125,85.0
18.75,-10.0,-71.25,71.0
18.75,-10.0,-69.375,77.0
18.75,-10.0,-67.5,80.0
18.75,-10.0,-65.625,78.0
18.75,-10.0,-63.75,89.0
18.75,0.0,-121.875,109.0
18.75,0.0,-120.0,100.0
18.75,0.0,-118.125,92.0
18.75,0.0,-116.25,84.0
18.75,0.0,-114.375,77.0
18.75,0.0,-112.5,70.0
18.75,0.0,-110.625,72.0
18.75,0.0,-108.75,72.0
18.75,0.0,-106.875,62.0
18.75,0.0,-105.0,53.0
18.75,0.0,-103.125,54.0
18.75,0.0,-101.25,54.0
18.75,0.0,-99.375,48.0
18.75,0.0,-97.5,43.0
18.75,0.0,-95.625,49.0
18.75,0.0,-93.75,51.0
18.75,0.0,-91.875,39.0
18.75,0.0,-90.0,48.0
18.75,0.0,-88.125,41.0
18.75,0.0,-86.25,44.0
18.75,0.0,-84.375,47.0
18.75,0.0,-82.5,55.0
18.75,0.0,-80.625,57.0
18.75,0.0,-78.75,66.0
18.75,0.0,-76.875,67.0
18.75,0.0,-75.0,71.0
18.75,10.0,-133.125,47.0
18.75,10.0,-131.25,36.0
18.75,10.0,-129.375,29.0
18.75,10.0,-127.5,28.0
18.75,10.0,-125.625,30.0
18.75,10.0,-123.75,31.0
18.75,10.0,-121.875,28.0
18.75,10.0,-120.0,29.0
18.75,10.0,-118.125,28.0
18.75,10.0,-116.25,28.0
18.75,10.0,-114.375,32.0
18.75,10.0,-112.5,28.0
18.75,10.0,-110.625,30.0
18.75,10.0,-108.75,40.0
18.75,10.0,-106.875,34.0
18.75,10.0,-105.0,29.0
18.75,10.0,-103.125,36.0
18.75,10.0,-101.25,40.0
18.75,10.0,-99.375,47.0
18.75,10.0,-97.5,45.0
18.75,10.0,-95.625,50.0
18.75,10.0,-93.75,65.0
18.75,10.0,-91.875,69.0
18.75,10.0,-90.0,89.0
18.75,10.0,-88.125,106.0
18.75,10.0,-86.25,117.0
18.75,10.0,-84.375,108.0
18.75,20.0,-142.5,36.0
18.75,20.0,-140.625,33.0
18.75,20.0,-138.75,31.0
18.75,20.0,-136.875,30.0
18.75,20.0,-135.0,32.0
18.75,20.0,-133.125,26.0
18.75,20.0,-131.25,24.0
18.75,20.0,-129.375,27.0
18.75,20.0,-127.5,26.0
18.75,20.0,-125.625,31.0
18.75,20.0,-123.75,38.0
18.75,20.0,-121.875,38.0
18.75,20.0,-120.0,40.0
18.75,20.0,-118.125,45.0
18.75,20.0,-116.25,49.0
18.75,20.0,-114.375,53.0
18.75,20.0,-112.5,56.0
18.75,20.0,-110.625,72.0
18.75,20.0,-108.75,80.0
20.625,-10.0,-86.25,127.0
20.625,-10.0,-84.375,120.0
20.625,-10.0,-82.5,124.0
20.625,-10.0,-80.625,115.0
20.625,-10.0,-78.75,101.0
20.625,-10.0,-76.875,83.0
20.625,-10.0,-75.0,90.0
20.625,-10.0,-73.125,97.0
20.625,-10.0,-71.25,95.0
20.625,0.0,-123.75,110.0
20.625,0.0,-121.875,101.0
20.625,0.0,-120.0,89.0
20.625,0.0,-118.125,84.0
20.625,0.0,-116.25,81.0
20.625,0.0,-114.375,73.0
20.625,0.0,-112.5,69.0
20.625,0.0,-110.625,67.0
20.625,0.0,-108.75,67.0
20.625,0.0,-106.875,65.0
20.625,0.0,-105.0,59.0
20.625,0.0,-103.125,58.0
20.625,0.0,-101.25,53.0
20.625,0.0,-99.375,49.0
20.625,0.0,-97.5,49.0
20.625,0.0,-95.625,49.0
20.625,0.0,-93.75,49.0
20.625,0.0,-91.875,40.0
20.625,0.0,-90.0,52.0
20.625,0.0,-88.125,49.0
20.625,0.0,-86.25,49.0
20.625,0.0,-84.375,55.0
20.625,0.0,-82.5,57.0
20.625,0.0,-80.625,60.0
20.625,0.0,-78.75,67.0
20.625,0.0,-76.875,76.0
20.625,0.0,-75.0,77.0
20.625,10.0,-136.875,61.0
20.625,10.0,-135.0,43.0
20.625,10.0,-133.125,34.0
20.625,10.0,-131.25,29.0
20.625,10.0,-129.375,24.0
20.625,10.0,-127.5,24.0
20.625,10.0,-125.625,26.0
20.625,10.0,-123.75,32.0
20.625,10.0,-121.875,31.0
20.625,10.0,-120.0,28.0
20.625,10.0,-118.125,28.0
20.625,10.0,-116.25,33.0
20.625,10.0,-114.375,41.0
20.625,10.0,-112.5,33.0
20.625,10.0,-110.625,26.0
20.625,10.0,-108.75,36.0
20.625,10.0,-106.875,40.0
20.625,10.0,-105.0,33.0
20.625,10.0,-103.125,35.0
20.625,10.0,-101.25,44.0
20.625,10.0,-99.375,49.0
20.625,10.0,-97.5,55.0
20.625,10.0,-95.625,60.0
20.625,10.0,-93.75,73.0
20.625,10.0,-91.875,83.0
20.625,10.0,-90.0,104.0
20.625,10.0,-88.125,120.0
20.625,20.0,-148.125,37.0
20.625,20.0,-146.25,36.0
20.625,20.0,-144.375,35.0
20.625,20.0,-142.5,31.0
20.625,20.0,-140.625,30.0
20.625,20.0,-138.75,29.0
20.625,20.0,-136.875,26.0
20.625,20.0,-135.0,27.0
20.625,20.0,-133.125,26.0
20.625,20.0,-131.25,27.0
20.625,20.0,-129.375,29.0
20.625,20.0,-127.5,26.0
20.625,20.0,-125.625,32.0
20.625,20.0,-123.75,36.0
20.625,20.0,-121.875,34.0
20.625,20.0,-120.0,39.0
20.625,20.0,-118.125,47.0
20.625,20.0,-116.25,47.0
20.625,20.0,-114.375,56.0
20.625,20.0,-112.5,67.0
20.625,20.0,-110.625,78.0
22.5,0.0,-127.5,105.0
22.5,0.0,-125.625,102.0
22.5,0.0,-123.75,96.0
22.5,0.0,-121.875,91.0
22.5,0.0,-120.0,85.0
22.5,0.0,-118.125,76.0
22.5,0.0,-116.25,74.0
22.5,0.0,-114.375,74.0
22.5,0.0,-112.5,70.0
22.5,0.0,-110.625,63.0
22.5,0.0,-108.75,66.0
22.5,0.0,-106.875,64.0
22.5,0.0,-105.0,59.0
22.5,0.0,-103.125,61.0
22.5,0.0,-101.25,50.0
22.5,0.0,-99.375,47.0
22.5,0.0,-97.5,49.0
22.5,0.0,-95.625,47.0
22.5,0.0,-93.75,48.0
22.5,0.0,-91.875,40.0
22.5,0.0,-90.0,54.0
22.5,0.0,-88.125,59.0
22.5,0.0,-86.25,58.0
22.5,0.0,-84.375,62.0
22.5,0.0,-82.5,62.0
22.5,0.0,-80.625,76.0
22.5,10.0,-142.5,53.0
22.5,10.0,-140.625,56.0
22.5,10.0,-138.75,52.0
22.5,10.0,-136.875,42.0
22.5,10.0,-135.0,35.0
22.5,10.0,-133.125,31.0
22.5,10.0,-131.25,29.0
22.5,10.0,-129.375,29.0
22.5,10.0,-127.5,27.0
22.5,10.0,-125.625,26.0
22.5,10.0,-123.75,33.0
22.5,10.0,-121.875,31.0
22.5,10.0,-120.0,27.0
22.5,10.0,-118.125,26.0
22.5,10.0,-116.25,29.0
22.5,10.0,-114.375,39.0
22.5,10.0,-112.5,36.0
22.5,10.0,-110.625,31.0
22.5,10.0,-108.75,34.0
22.5,10.0,-106.875,37.0
22.5,10.0,-105.0,36.0
22.5,10.0,-103.125,37.0
22.5,10.0,-101.25,50.0
22.5,10.0,-99.375,48.0
22.5,10.0,-97.5,56.0
22.5,10.0,-95.625,64.0
22.5,10.0,-93.75,91.0
22.5,10.0,-91.875,102.0
22.5,10.0,-90.0,112.0
22.5,20.0,-151.875,42.0
22.5,20.0,-150.0,33.0
22.5,20.0,-148.125,29.0
22.5,20.0,-146.25,31.0
22.5,20.0,-144.375,29.0
22.5,20.0,-142.5,27.0
22.5,20.0,-140.625,27.0
22.5,20.0,-138.75,27.0
22.5,20.0,-136.875,26.0
22.5,20.0,-135.0,23.0
22.5,20.0,-133.125,24.0
22.5,20.0,-131.25,28.0
22.5,20.0,-129.375,30.0
22.5,20.0,-127.5,30.0
22.5,20.0,-125.625,32.0
22.5,20.0,-123.75,38.0
22.5,20.0,-121.875,37.0
22.5,20.0,-120.0,42.0
22.5,20.0,-118.125,54.0
22.5,20.0,-116.25,57.0
22.5,20.0,-114.375,67.0
24.375,0.0,-127.5,95.0
24.375,0.0,-125.625,91.0
24.375,0.0,-123.75,82.0
24.375,0.0,-121.875,79.0
24.375,0.0,-120.0,80.0
24.375,0.0,-118.125,75.0
24.375,0.0,-116.25,71.0
24.375,0.0,-114.375,75.0
24.375,0.0,-112.5,72.0
24.375,0.0,-110.625,66.0
24.375,0.0,-108.75,74.0
24.375,0.0,-106.875,65.0
24.375,0.0,-105.0,60.0
24.375,0.0,-103.125,64.0
24.375,0.0,-101.25,60.0
24.375,0.0,-99.375,57.0
24.375,0.0,-97.5,47.0
24.375,0.0,-95.625,48.0
24.375,0.0,-93.75,54.0
24.375,0.0,-91.875,48.0
24.375,0.0,-90.0,58.0
24.375,0.0,-88.125,62.0
24.375,0.0,-86.25,67.0
24.375,0.0,-84.375,75.0
24.375,0.0,-82.5,78.0
24.375,0.0,-80.625,97.0
24.375,10.0,-142.5,49.0
24.375,10.0,-140.625,47.0
24.375,10.0,-138.75,36.0
24.375,10.0,-136.875,32.0
24.375,10.0,-135.0,30.0
24.375,10.0,-133.125,30.0
24.375,10.0,-131.25,32.0
24.375,10.0,-129.375,32.0
24.375,10.0,-127.5,29.0
24.375,10.0,-125.625,28.0
24.375,10.0,-123.75,32.0
24.375,10.0,-121.875,30.0
24.375,10.0,-120.0,30.0
24.375,10.0,-118.125,30.0
24.375,10.0,-116.25,30.0
24.375,10.0,-114.375,39.0
24.375,10.0,-112.5,39.0
24.375,10.0,-110.625,35.0
24.375,10.0,-108.75,34.0
24.375,10.0,-106.875,35.0
24.375,10.0,-105.0,40.0
24.375,10.0,-103.125,41.0
24.375,10.0,-101.25,55.0
24.375,10.0,-99.375,60.0
24.375,10.0,-97.5,67.0
24.375,10.0,-95.625,71.0
24.375,10.0,-93.75,104.0
24.375,10.0,-91.875,121.0
24.375,10.0,-90.0,133.0
24.375,20.0,-151.875,34.0
24.375,20.0,-150.0,30.0
24.375,20.0,-148.125,26.0
24.375,20.0,-146.25,25.0
24.375,20.0,-144.375,25.0
24.375,20.0,-142.5,25.0
24.375,20.0,-140.625,24.0
24.375,20.0,-138.75,25.0
24.375,20.0,-136.875,28.0
24.375,20.0,-135.0,25.0
24.375,20.0,-133.125,26.0
24.375,20.0,-131.25,29.0
24.375,20.0,-129.375,31.0
24.375,20.0,-127.5,32.0
24.375,20.0,-125.625,30.0
24.375,20.0,-123.75,40.0
24.375,20.0,-121.875,46.0
24.375,20.0,-120.0,48.0
24.375,20.0,-118.125,58.0
24.375,20.0,-116.25,66.0
24.375,20.0,-114.375,74.0
26.25,0.0,-131.25,96.0
26.25,0.0,-129.375,91.0
26.25,0.0,-127.5,88.0
26.25,0.0,-125.625,88.0
26.25,0.0,-123.75,79.0
26.25,0.0,-121.875,74.0
26.25,0.0,-120.0,80.0
26.25,0.0,-118.125,80.0
26.25,0.0,-116.25,75.0
26.25,0.0,-114.375,79.0
26.25,0.0,-112.5,76.0
26.25,0.0,-110.625,74.0
26.25,0.0,-108.75,78.0
26.25,0.0,-106.875,69.0
26.25,0.0,-105.0,67.0
26.25,0.0,-103.125,56.0
26.25,0.0,-101.25,62.0
26.25,0.0,-99.375,63.0
26.25,0.0,-97.5,54.0
26.25,0.0,-95.625,59.0
26.25,0.0,-93.75,56.0
26.25,0.0,-91.875,60.0
26.25,0.0,-90.0,68.0
26.25,0.0,-88.125,67.0
26.25,10.0,-146.25,46.0
26.25,10.0,-144.375,43.0
26.25,10.0,-142.5,40.0
26.25,10.0,-140.625,38.0
26.25,10.0,-138.75,35.0
26.25,10.0,-136.875,30.0
26.25,10.0,-135.0,25.0
26.25,10.0,-133.125,28.0
26.25,10.0,-131.25,35.0
26.25,10.0,-129.375,32.0
26.25,10.0,-127.5,29.0
26.25,10.0,-125.625,27.0
26.25,10.0,-123.75,29.0
26.25,10.0,-121.875,33.0
26.25,10.0,-120.0,37.0
26.25,10.0,-118.125,35.0
26.25,10.0,-116.25,32.0
26.25,10.0,-114.375,39.0
26.25,10.0,-112.5,39.0
26.25,10.0,-110.625,35.0
26.25,10.0,-108.75,37.0
26.25,10.0,-106.875,42.0
26.25,10.0,-105.0,49.0
26.25,10.0,-103.125,47.0
26.25,10.0,-101.25,56.0
26.25,10.0,-99.375,68.0
26.25,10.0,-97.5,86.0
26.25,10.0,-95.625,96.0
26.25,20.0,-153.75,33.0
26.25,20.0,-151.875,31.0
26.25,20.0,-150.0,29.0
26.25,20.0,-148.125,23.0
26.25,20.0,-146.25,20.0
26.25,20.0,-144.375,24.0
26.25,20.0,-142.5,26.0
26.25,20.0,-140.625,24.0
26.25,20.0,-138.75,24.0
26.25,20.0,-136.875,27.0
26.25,20.0,-135.0,27.0
26.25,20.0,-133.125,28.0
26.25,20.0,-131.25,31.0
26.25,20.0,-129.375,31.0
26.25,20.0,-127.5,30.0
26.25,20.0,-125.625,30.0
26.25,20.0,-123.75,40.0
26.25,20.0,-121.875,50.0
26.25,20.0,-120.0,56.0
26.25,20.0,-118.125,64.0
28.125,0.0,-131.25,91.0
28.125,0.0,-129.375,88.0
28.125,0.0,-127.5,89.0
28.125,0.0,-125.625,87.0
28.125,0.0,-123.75,81.0
28.125,0.0,-121.875,84.0
28.125,0.0,-120.0,88.0
28.125,0.0,-118.125,83.0
28.125,0.0,-116.25,78.0
28.125,0.0,-114.375,86.0
28.125,0.0,-112.5,86.0
28.125,0.0,-110.625,85.0
28.125,0.0,-108.75,83.0
28.125,0.0,-106.875,74.0
28.125,0.0,-105.0,76.0
28.125,0.0,-103.125,63.0
28.125,0.0,-101.25,68.0
28.125,0.0,-99.375,63.0
28.125,0.0,-97.5,65.0
28.125,0.0,-95.625,73.0
28.125,0.0,-93.75,65.0
28.125,0.0,-91.875,76.0
28.125,0.0,-90.0,82.0
28.125,0.0,-88.125,90.0
28.125,10.0,-146.25,44.0
28.125,10.0,-144.375,42.0
28.125,10.0,-142.5,39.0
28.125,10.0,-140.625,38.0
28.125,10.0,-138.75,34.0
28.125,10.0,-136.875,30.0
28.125,10.0,-135.0,27.0
28.125,10.0,-133.125,29.0
28.125,10.0,-131.25,35.0
28.125,10.0,-129.375,36.0
28.125,10.0,-127.5,34.0
28.125,10.0,-125.625,32.0
28.125,10.0,-123.75,30.0
28.125,10.0,-121.875,37.0
28.125,10.0,-120.0,42.0
28.125,10.0,-118.125,40.0
28.125,10.0,-116.25,38.0
28.125,10.0,-114.375,40.0
28.125,10.0,-112.5,43.0
28.125,10.0,-110.625,41.0
28.125,10.0,-108.75,41.0
28.125,10.0,-106.875,44.0
28.125,10.0,-105.0,55.0
28.125,10.0,-103.125,62.0
28.125,10.0,-101.25,71.0
28.125,10.0,-99.375,79.0
28.125,10.0,-97.5,97.0
28.125,10.0,-95.625,114.0
28.125,20.0,-153.75,26.0
28.125,20.0,-151.875,24.0
28.125,20.0,-150.0,26.0
28.125,20.0,-148.125,25.0
28.125,20.0,-146.25,23.0
28.125,20.0,-144.375,25.0
28.125,20.0,-142.5,23.0
28.125,20.0,-140.625,23.0
28.125,20.0,-138.75,23.0
28.125,20.0,-136.875,23.0
28.125,20.0,-135.0,26.0
28.125,20.0,-133.125,27.0
28.125,20.0,-131.25,32.0
28.125,20.0,-129.375,33.0
28.125,20.0,-127.5,34.0
28.125,20.0,-125.625,42.0
28.125,20.0,-123.75,50.0
28.125,20.0,-121.875,61.0
28.125,20.0,-120.0,66.0
28.125,20.0,-118.125,76.0
30.0,0.0,-133.125,87.0
30.0,0.0,-131.25,88.0
30.0,0.0,-129.375,89.0
30.0,0.0,-127.5,94.0
30.0,0.0,-125.625,90.0
30.0,0.0,-123.75,91.0
30.0,0.0,-121.875,100.0
30.0,0.0,-120.0,94.0
30.0,0.0,-118.125,90.0
30.0,0.0,-116.25,88.0
30.0,0.0,-114.375,84.0
30.0,0.0,-112.5,87.0
30.0,0.0,-110.625,89.0
30.0,0.0,-108.75,87.0
30.0,0.0,-106.875,77.0
30.0,0.0,-105.0,82.0
30.0,0.0,-103.125,80.0
30.0,0.0,-101.25,83.0
30.0,0.0,-99.375,78.0
30.0,0.0,-97.5,83.0
30.0,0.0,-95.625,94.0
30.0,0.0,-93.75,105.0
30.0,10.0,-148.125,45.0
30.0,10.0,-146.25,44.0
30.0,10.0,-144.375,41.0
30.0,10.0,-142.5,38.0
30.0,10.0,-140.625,35.0
30.0,10.0,-138.75,31.0
30.0,10.0,-136.875,33.0
30.0,10.0,-135.0,35.0
30.0,10.0,-133.125,35.0
30.0,10.0,-131.25,39.0
30.0,10.0,-129.375,40.0
30.0,10.0,-127.5,39.0
30.0,10.0,-125.625,40.0
30.0,10.0,-123.75,34.0
30.0,10.0,-121.875,39.0
30.0,10.0,-120.0,44.0
30.0,10.0,-118.125,43.0
30.0,10.0,-116.25,50.0
30.0,10.0,-114.375,46.0
30.0,10.0,-112.5,46.0
30.0,10.0,-110.625,49.0
30.0,10.0,-108.75,52.0
30.0,10.0,-106.875,54.0
30.0,10.0,-105.0,61.0
30.0,10.0,-103.125,73.0
30.0,20.0,-157.5,23.0
30.0,20.0,-155.625,25.0
30.0,20.0,-153.75,25.0
30.0,20.0,-151.875,21.0
30.0,20.0,-150.0,22.0
30.0,20.0,-148.125,22.0
30.0,20.0,-146.25,23.0
30.0,20.0,-144.375,24.0
30.0,20.0,-142.5,23.0
30.0,20.0,-140.625,29.0
30.0,20.0,-138.75,28.0
30.0,20.0,-136.875,25.0
30.0,20.0,-135.0,31.0
30.0,20.0,-133.125,31.0
30.0,20.0,-131.25,31.0
30.0,20.0,-129.375,35.0
30.0,20.0,-127.5,40.0
30.0,20.0,-125.625,50.0
30.0,20.0,-123.75,58.0
30.0,20.0,-121.875,73.0
30.0,20.0,-120.0,77.0
31.875,0.0,-133.125,86.0
31.875,0.0,-131.25,87.0
31.875,0.0,-129.375,85.0
31.875,0.0,-127.5,96.0
31.875,0.0,-125.625,103.0
31.875,0.0,-123.75,106.0
31.875,0.0,-121.875,107.0
31.875,0.0,-120.0,98.0
31.875,0.0,-118.125,101.0
31.875,0.0,-116.25,102.0
31.875,0.0,-114.375,90.0
31.875,0.0,-112.5,93.0
31.875,0.0,-110.625,97.0
31.875,0.0,-108.75,99.0
31.875,0.0,-106.875,95.0
31.875,0.0,-105.0,98.0
31.875,0.0,-103.125,98.0
31.875,10.0,-151.875,47.0
31.875,10.0,-150.0,45.0
31.875,10.0,-148.125,42.0
31.875,10.0,-146.25,42.0
31.875,10.0,-144.375,37.0
31.875,10.0,-142.5,35.0
31.875,10.0,-140.625,33.0
31.875,10.0,-138.75,31.0
31.875,10.0,-136.875,37.0
31.875,10.0,-135.0,40.0
31.875,10.0,-133.125,42.0
31.875,10.0,-131.25,45.0
31.875,10.0,-129.375,40.0
31.875,10.0,-127.5,39.0
31.875,10.0,-125.625,42.0
31.875,10.0,-123.75,35.0
31.875,10.0,-121.875,39.0
31.875,10.0,-120.0,46.0
31.875,10.0,-118.125,43.0
31.875,10.0,-116.25,50.0
31.875,10.0,-114.375,52.0
31.875,10.0,-112.5,49.0
31.875,10.0,-110.625,55.0
31.875,10.0,-108.75,62.0
31.875,10.0,-106.875,67.0
31.875,10.0,-105.0,74.0
31.875,20.0,-161.25,25.0
31.875,20.0,-159.375,22.0
31.875,20.0,-157.5,21.0
31.875,20.0,-155.625,25.0
31.875,20.0,-153.75,27.0
31.875,20.0,-151.875,25.0
31.875,20.0,-150.0,24.0
31.875,20.0,-148.125,24.0
31.875,20.0,-146.25,26.0
31.875,20.0,-144.375,27.0
31.875,20.0,-142.5,24.0
31.875,20.0,-140.625,27.0
31.875,20.0,-138.75,30.0
31.875,20.0,-136.875,29.0
31.875,20.0,-135.0,37.0
31.875,20.0,-133.125,39.0
31.875,20.0,-131.25,34.0
31.875,20.0,-129.375,36.0
31.875,20.0,-127.5,41.0
31.875,20.0,-125.625,52.0
33.75,0.0,-133.125,87.0
33.75,0.0,-131.25,85.0
33.75,0.0,-129.375,83.0
33.75,0.0,-127.5,96.0
33.75,0.0,-125.625,115.0
33.75,0.0,-123.75,115.0
33.75,0.0,-121.875,106.0
33.75,0.0,-120.0,110.0
33.75,0.0,-118.125,115.0
33.75,0.0,-116.25,112.0
33.75,0.0,-114.375,106.0
33.75,0.0,-112.5,112.0
33.75,0.0,-110.625,110.0
33.75,0.0,-108.75,111.0
33.75,0.0,-106.875,110.0
33.75,0.0,-105.0,115.0
33.75,0.0,-103.125,119.0
33.75,10.0,-151.875,43.0
33.75,10.0,-150.0,42.0
33.75,10.0,-148.125,40.0
33.75,10.0,-146.25,39.0
33.75,10.0,-144.375,37.0
33.75,10.0,-142.5,36.0
33.75,10.0,-140.625,35.0
33.75,10.0,-138.75,36.0
33.75,10.0,-136.875,40.0
33.75,10.0,-135.0,39.0
33.75,10.0,-133.125,39.0
33.75,10.0,-131.25,40.0
33.75,10.0,-129.375,42.0
33.75,10.0,-127.5,43.0
33.75,10.0,-125.625,42.0
33.75,10.0,-123.75,37.0
33.75,10.0,-121.875,38.0
33.75,10.0,-120.0,45.0
33.75,10.0,-118.125,43.0
33.75,10.0,-116.25,47.0
33.75,10.0,-114.375,58.0
33.75,10.0,-112.5,58.0
33.75,10.0,-110.625,67.0
33.75,10.0,-108.75,72.0
33.75,10.0,-106.875,82.0
33.75,10.0,-105.0,103.0
33.75,20.0,-161.25,22.0
33.75,20.0,-159.375,23.0
33.75,20.0,-157.5,24.0
33.75,20.0,-155.625,26.0
33.75,20.0,-153.75,26.0
33.75,20.0,-151.875,28.0
33.75,20.0,-150.0,29.0
33.75,20.0,-148.125,29.0
33.75,20.0,-146.25,29.0
33.75,20.0,-144.375,31.0
33.75,20.0,-142.5,29.0
33.75,20.0,-140.625,29.0
33.75,20.0,-138.75,35.0
33.75,20.0,-136.875,36.0
33.75,20.0,-135.0,36.0
33.75,20.0,-133.125,41.0
33.75,20.0,-131.25,42.0
33.75,20.0,-129.375,44.0
33.75,20.0,-127.5,44.0
33.75,20.0,-125.625,61.0
35.625,0.0,-138.75,69.0
35.625,0.0,-136.875,76.0
35.625,0.0,-135.0,89.0
35.625,0.0,-133.125,91.0
35.625,0.0,-131.25,92.0
35.625,0.0,-129.375,91.0
35.625,10.0,-153.75,48.0
35.625,10.0,-151.875,44.0
35.625,10.0,-150.0,44.0
35.625,10.0,-148.125,39.0
35.625,10.0,-146.25,38.0
35.625,10.0,-144.375,42.0
35.625,10.0,-142.5,41.0
35.625,10.0,-140.625,39.0
35.625,10.0,-138.75,43.0
35.625,10.0,-136.875,45.0
35.625,10.0,-135.0,42.0
35.625,10.0,-133.125,37.0
35.625,10.0,-131.25,40.0
35.625,10.0,-129.375,48.0
35.625,10.0,-127.5,45.0
35.625,10.0,-125.625,40.0
35.625,10.0,-123.75,43.0
35.625,10.0,-121.875,45.0
35.625,10.0,-120.0,49.0
35.625,10.0,-118.125,48.0
35.625,10.0,-116.25,55.0
35.625,10.0,-114.375,71.0
35.625,10.0,-112.5,79.0
35.625,10.0,-110.625,92.0
35.625,20.0,-161.25,18.0
35.625,20.0,-159.375,22.0
35.625,20.0,-157.5,22.0
35.625,20.0,-155.625,22.0
35.625,20.0,-153.75,24.0
35.625,20.0,-151.875,26.0
35.625,20.0,-150.0,28.0
35.625,20.0,-148.125,30.0
35.625,20.0,-146.25,29.0
35.625,20.0,-144.375,33.0
35.625,20.0,-142.5,35.0
35.625,20.0,-140.625,33.0
35.625,20.0,-138.75,39.0
35.625,20.0,-136.875,37.0
35.625,20.0,-135.0,34.0
35.625,20.0,-133.125,42.0
35.625,20.0,-131.25,48.0
35.625,20.0,-129.375,47.0
37.5,0.0,-146.25,68.0
37.5,0.0,-144.375,69.0
37.5,0.0,-142.5,70.0
37.5,0.0,-140.625,70.0
37.5,0.0,-138.75,61.0
37.5,10.0,-157.5,47.0
37.5,10.0,-155.625,46.0
37.5,10.0,-153.75,47.0
37.5,10.0,-151.875,46.0
37.5,10.0,-150.0,43.0
37.5,10.0,-148.125,39.0
37.5,10.0,-146.25,42.0
37.5,10.0,-144.375,47.0
37.5,10.0,-142.5,44.0
37.5,10.0,-140.625,43.0
37.5,10.0,-138.75,50.0
37.5,10.0,-136.875,53.0
37.5,10.0,-135.0,47.0
37.5,10.0,-133.125,42.0
37.5,10.0,-131.25,44.0
37.5,10.0,-129.375,46.0
37.5,10.0,-127.5,45.0
37.5,10.0,-125.625,47.0
37.5,10.0,-123.75,51.0
37.5,10.0,-121.875,60.0
37.5,10.0,-120.0,62.0
37.5,20.0,-163.125,21.0
37.5,20.0,-161.25,19.0
37.5,20.0,-159.375,22.0
37.5,20.0,-157.5,23.0
37.5,20.0,-155.625,26.0
37.5,20.0,-153.75,27.0
37.5,20.0,-151.875,27.0
37.5,20.0,-150.0,31.0
37.5,20.0,-148.125,36.0
37.5,20.0,-146.25,35.0
37.5,20.0,-144.375,34.0
37.5,20.0,-142.5,37.0
37.5,20.0,-140.625,38.0
37.5,20.0,-138.75,40.0
37.5,20.0,-136.875,39.0
37.5,20.0,-135.0,38.0
39.375,0.0,-146.25,56.0
39.375,0.0,-144.375,64.0
39.375,0.0,-142.5,68.0
39.375,0.0,-140.625,65.0
39.375,0.0,-138.75,58.0
39.375,10.0,-157.5,49.0
39.375,10.0,-155.625,46.0
39.375,10.0,-153.75,45.0
39.375,10.0,-151.875,42.0
39.375,10.0,-150.0,42.0
39.375,10.0,-148.125,44.0
39.375,10.0,-146.25,45.0
39.375,10.0,-144.375,45.0
39.375,10.0,-142.5,47.0
39.375,10.0,-140.625,53.0
39.375,10.0,-138.75,57.0
39.375,10.0,-136.875,59.0
39.375,10.0,-135.0,55.0
39.375,10.0,-133.125,50.0
39.375,10.0,-131.25,51.0
39.375,10.0,-129.375,54.0
39.375,10.0,-127.5,58.0
39.375,10.0,-125.625,56.0
39.375,10.0,-123.75,59.0
39.375,10.0,-121.875,73.0
39.375,10.0,-120.0,80.0
39.375,20.0,-163.125,23.0
39.375,20.0,-161.25,25.0
39.375,20.0,-159.375,25.0
39.375,20.0,-157.5,28.0
39.375,20.0,-155.625,33.0
39.375,20.0,-153.75,33.0
39.375,20.0,-151.875,31.0
39.375,20.0,-150.0,34.0
39.375,20.0,-148.125,41.0
39.375,20.0,-146.25,43.0
39.375,20.0,-144.375,37.0
39.375,20.0,-142.5,37.0
39.375,20.0,-140.625,42.0
39.375,20.0,-138.75,45.0
39.375,20.0,-136.875,44.0
39.375,20.0,-135.0,43.0
41.25,0.0,-151.875,50.0
41.25,0.0,-150.0,48.0
41.25,0.0,-148.125,45.0
41.25,0.0,-146.25,50.0
41.25,0.0,-144.375,58.0
41.25,0.0,-142.5,59.0
41.25,0.0,-140.625,56.0
41.25,0.0,-138.75,53.0
41.25,10.0,-161.25,40.0
41.25,10.0,-159.375,39.0
41.25,10.0,-157.5,45.0
41.25,10.0,-155.625,42.0
41.25,10.0,-153.75,39.0
41.25,10.0,-151.875,41.0
41.25,10.0,-150.0,47.0
41.25,10.0,-148.125,50.0
41.25,10.0,-146.25,49.0
41.25,10.0,-144.375,50.0
41.25,20.0,-168.75,22.0
41.25,20.0,-166.875,25.0
41.25,20.0,-165.0,22.0
41.25,20.0,-163.125,26.0
41.25,20.0,-161.25,28.0
41.25,20.0,-159.375,28.0
41.25,20.0,-157.5,33.0
41.25,20.0,-155.625,36.0
41.25,20.0,-153.75,38.0
41.25,20.0,-151.875,41.0
41.25,20.0,-150.0,39.0
41.25,20.0,-148.125,43.0
41.25,20.0,-146.25,48.0
41.25,20.0,-144.375,43.0
43.125,0.0,-151.875,41.0
43.125,0.0,-150.0,43.0
43.125,0.0,-148.125,44.0
43.125,0.0,-146.25,47.0
43.125,0.0,-144.375,52.0
43.125,0.0,-142.5,50.0
43.125,0.0,-140.625,48.0
43.125,0.0,-138.75,50.0
43.125,10.0,-161.25,33.0
43.125,10.0,-159.375,32.0
43.125,10.0,-157.5,37.0
43.125,10.0,-155.625,37.0
43.125,10.0,-153.75,39.0
43.125,10.0,-151.875,44.0
43.125,10.0,-150.0,50.0
43.125,10.0,-148.125,55.0
43.125,10.0,-146.25,55.0
43.125,10.0,-144.375,58.0
43.125,20.0,-168.75,25.0
43.125,20.0,-166.875,26.0
43.125,20.0,-165.0,25.0
43.125,20.0,-163.125,28.0
43.125,20.0,-161.25,27.0
43.125,20.0,-159.375,32.0
43.125,20.0,-157.5,38.0
43.125,20.0,-155.625,38.0
43.125,20.0,-153.75,42.0
43.125,20.0,-151.875,49.0
43.125,20.0,-150.0,46.0
43.125,20.0,-148.125,45.0
43.125,20.0,-146.25,48.0
43.125,20.0,-144.375,46.0
45.0,0.0,-157.5,48.0
45.0,0.0,-155.625,44.0
45.0,0.0,-153.75,40.0
45.0,0.0,-151.875,38.0
45.0,0.0,-150.0,45.0
45.0,0.0,-148.125,43.0
45.0,0.0,-146.25,40.0
45.0,0.0,-144.375,45.0
45.0,0.0,-142.5,45.0
45.0,0.0,-140.625,45.0
45.0,0.0,-138.75,48.0
45.0,0.0,-136.875,52.0
45.0,0.0,-135.0,59.0
45.0,10.0,-168.75,36.0
45.0,10.0,-166.875,30.0
45.0,10.0,-165.0,30.0
45.0,10.0,-163.125,33.0
45.0,10.0,-161.25,33.0
45.0,10.0,-159.375,31.0
45.0,10.0,-157.5,35.0
45.0,10.0,-155.625,40.0
45.0,10.0,-153.75,44.0
45.0,10.0,-151.875,45.0
45.0,10.0,-150.0,51.0
45.0,20.0,-178.125,23.0
45.0,20.0,-176.25,24.0
45.0,20.0,-174.375,21.0
45.0,20.0,-172.5,19.0
45.0,20.0,-170.625,21.0
45.0,20.0,-168.75,26.0
45.0,20.0,-166.875,26.0
45.0,20.0,-165.0,27.0
45.0,20.0,-163.125,30.0
46.875,0.0,-157.5,44.0
46.875,0.0,-155.625,43.0
46.875,0.0,-153.75,37.0
46.875,0.0,-151.875,37.0
46.875,0.0,-150.0,47.0
46.875,0.0,-148.125,40.0
46.875,0.0,-146.25,32.0
46.875,0.0,-144.375,39.0
46.875,0.0,-142.5,40.0
46.875,0.0,-140.625,42.0
46.875,0.0,-138.75,46.0
46.875,0.0,-136.875,47.0
46.875,0.0,-135.0,49.0
46.875,0.0,-133.125,56.0
46.875,10.0,-172.5,37.0
46.875,10.0,-170.625,36.0
46.875,10.0,-168.75,31.0
46.875,10.0,-166.875,29.0
46.875,10.0,-165.0,24.0
46.875,10.0,-163.125,27.0
46.875,10.0,-161.25,32.0
46.875,10.0,-159.375,30.0
46.875,10.0,-157.5,34.0
46.875,10.0,-155.625,36.0
46.875,10.0,-153.75,38.0
46.875,10.0,-151.875,42.0
46.875,10.0,-150.0,50.0
46.875,20.0,-191.25,25.0
46.875,20.0,-189.375,24.0
46.875,20.0,-187.5,20.0
46.875,20.0,-185.625,22.0
46.875,20.0,-183.75,27.0
46.875,20.0,-181.875,27.0
46.875,20.0,-180.0,22.0
46.875,20.0,-178.125,20.0
46.875,20.0,-176.25,21.0
46.875,20.0,-174.375,21.0
46.875,20.0,-172.5,24.0
46.875,20.0,-170.625,22.0
46.875,20.0,-168.75,25.0
46.875,20.0,-166.875,27.0
46.875,20.0,-165.0,30.0
46.875,20.0,-163.125,32.0
48.75,0.0,-157.5,41.0
48.75,0.0,-155.625,43.0
48.75,0.0,-153.75,36.0
48.75,0.0,-151.875,35.0
48.75,0.0,-150.0,44.0
48.75,0.0,-148.125,36.0
48.75,0.0,-146.25,28.0
48.75,0.0,-144.375,35.0
48.75,0.0,-142.5,34.0
48.75,0.0,-140.625,32.0
48.75,0.0,-138.75,39.0
48.75,0.0,-136.875,41.0
48.75,0.0,-135.0,43.0
48.75,0.0,-133.125,49.0
48.75,10.0,-172.5,37.0
48.75,10.0,-170.625,33.0
48.75,10.0,-168.75,27.0
48.75,10.0,-166.875,28.0
48.75,10.0,-165.0,23.0
48.75,10.0,-163.125,23.0
48.75,10.0,-161.25,27.0
48.75,10.0,-159.375,26.0
48.75,10.0,-157.5,27.0
48.75,10.0,-155.625,28.0
48.75,10.0,-153.75,32.0
48.75,10.0,-151.875,39.0
48.75,10.0,-150.0,47.0
48.75,20.0,-191.25,25.0
48.75,20.0,-189.375,20.0
48.75,20.0,-187.5,17.0
48.75,20.0,-185.625,19.0
48.75,20.0,-183.75,21.0
48.75,20.0,-181.875,20.0
48.75,20.0,-180.0,19.0
48.75,20.0,-178.125,19.0
48.75,20.0,-176.25,18.0
48.75,20.0,-174.375,20.0
48.75,20.0,-172.5,24.0
48.75,20.0,-170.625,19.0
48.75,20.0,-168.75,22.0
48.75,20.0,-166.875,27.0
48.75,20.0,-165.0,28.0
48.75,20.0,-163.125,31.0
50.625,0.0,-161.25,46.0
50.625,0.0,-159.375,43.0
50.625,0.0,-157.5,42.0
50.625,0.0,-155.625,42.0
50.625,0.0,-153.75,37.0
50.625,0.0,-151.875,37.0
50.625,0.0,-150.0,40.0
50.625,0.0,-148.125,33.0
50.625,0.0,-146.25,30.0
50.625,0.0,-144.375,33.0
50.625,0.0,-142.5,28.0
50.625,0.0,-140.625,27.0
50.625,0.0,-138.75,35.0
50.625,0.0,-136.875,35.0
50.625,0.0,-135.0,37.0
50.625,0.0,-133.125,43.0
50.625,0.0,-131.25,39.0
50.625,0.0,-129.375,43.0
50.625,0.0,-127.5,56.0
50.625,0.0,-125.625,72.0
50.625,10.0,-181.875,32.0
50.625,10.0,-180.0,33.0
50.625,10.0,-178.125,34.0
50.625,10.0,-176.25,32.0
50.625,10.0,-174.375,32.0
50.625,10.0,-172.5,31.0
50.625,10.0,-170.625,27.0
50.625,10.0,-168.75,22.0
50.625,10.0,-166.875,24.0
50.625,10.0,-165.0,22.0
50.625,10.0,-163.125,22.0
50.625,10.0,-161.25,23.0
50.625,10.0,-159.375,21.0
50.625,10.0,-157.5,20.0
50.625,10.0,-155.625,22.0
50.625,10.0,-153.75,28.0
50.625,10.0,-151.875,33.0
50.625,10.0,-150.0,37.0
50.625,10.0,-148.125,44.0
50.625,20.0,-196.875,27.0
50.625,20.0,-195.0,25.0
50.625,20.0,-193.125,24.0
50.625,20.0,-191.25,25.0
50.625,20.0,-189.375,23.0
50.625,20.0,-187.5,20.0
50.625,20.0,-185.625,20.0
50.625,20.0,-183.75,17.0
50.625,20.0,-181.875,15.0
50.625,20.0,-180.0,15.0
50.625,20.0,-178.125,16.0
50.625,20.0,-176.25,16.0
50.625,20.0,-174.375,18.0
50.625,20.0,-172.5,19.0
50.625,20.0,-170.625,16.0
50.625,20.0,-168.75,17.0
50.625,20.0,-166.875,21.0
50.625,20.0,-165.0,19.0
50.625,20.0,-163.125,27.0
50.625,30.0,-198.75,22.0
50.625,30.0,-196.875,22.0
50.625,30.0,-195.0,29.0
50.625,30.0,-193.125,33.0
50.625,30.0,-191.25,27.0
50.625,30.0,-189.375,28.0
50.625,30.0,-187.5,35.0
50.625,30.0,-185.625,32.0
50.625,30.0,-183.75,31.0
50.625,30.0,-181.875,31.0
50.625,30.0,-180.0,29.0
50.625,30.0,-178.125,36.0
50.625,30.0,-176.25,40.0
50.625,30.0,-174.375,42.0
52.5,0.0,-161.25,45.0
52.5,0.0,-159.375,42.0
52.5,0.0,-157.5,44.0
52.5,0.0,-155.625,43.0
52.5,0.0,-153.75,38.0
52.5,0.0,-151.875,36.0
52.5,0.0,-150.0,35.0
52.5,0.0,-148.125,34.0
52.5,0.0,-146.25,34.0
52.5,0.0,-144.375,32.0
52.5,0.0,-142.5,26.0
52.5,0.0,-140.625,28.0
52.5,0.0,-138.75,31.0
52.5,0.0,-136.875,28.0
52.5,0.0,-135.0,31.0
52.5,0.0,-133.125,36.0
52.5,0.0,-131.25,38.0
52.5,0.0,-129.375,41.0
52.5,0.0,-127.5,48.0
52.5,0.0,-125.625,57.0
52.5,0.0,-123.75,64.0
52.5,0.0,-121.875,71.0
52.5,0.0,-120.0,72.0
52.5,10.0,-181.875,32.0
52.5,10.0,-180.0,32.0
52.5,10.0,-178.125,34.0
52.5,10.0,-176.25,32.0
52.5,10.0,-174.375,31.0
52.5,10.0,-172.5,25.0
52.5,10.0,-170.625,25.0
52.5,10.0,-168.75,22.0
52.5,10.0,-166.875,23.0
52.5,10.0,-165.0,21.0
52.5,10.0,-163.125,21.0
52.5,10.0,-161.25,23.0
52.5,10.0,-159.375,21.0
52.5,10.0,-157.5,19.0
52.5,10.0,-155.625,21.0
52.5,10.0,-153.75,26.0
52.5,10.0,-151.875,25.0
52.5,10.0,-150.0,27.0
52.5,10.0,-148.125,35.0
52.5,10.0,-146.25,37.0
52.5,10.0,-144.375,43.0
52.5,10.0,-142.5,58.0
52.5,10.0,-140.625,67.0
52.5,20.0,-196.875,29.0
52.5,20.0,-195.0,30.0
52.5,20.0,-193.125,26.0
52.5,20.0,-191.25,25.0
52.5,20.0,-189.375,23.0
52.5,20.0,-187.5,24.0
52.5,20.0,-185.625,25.0
52.5,20.0,-183.75,18.0
52.5,20.0,-181.875,14.0
52.5,20.0,-180.0,13.0
52.5,20.0,-178.125,14.0
52.5,20.0,-176.25,14.0
52.5,20.0,-174.375,15.0
52.5,20.0,-172.5,15.0
52.5,20.0,-170.625,14.0
52.5,20.0,-168.75,15.0
52.5,20.0,-166.875,14.0
52.5,20.0,-165.0,12.0
52.5,20.0,-163.125,21.0
52.5,20.0,-161.25,29.0
52.5,20.0,-159.375,35.0
52.5,30.0,-202.5,21.0
52.5,30.0,-200.625,21.0
52.5,30.0,-198.75,20.0
52.5,30.0,-196.875,20.0
52.5,30.0,-195.0,26.0
52.5,30.0,-193.125,28.0
52.5,30.0,-191.25,24.0
52.5,30.0,-189.375,27.0
52.5,30.0,-187.5,31.0
52.5,30.0,-185.625,26.0
52.5,30.0,-183.75,28.0
52.5,30.0,-181.875,30.0
52.5,30.0,-180.0,31.0
52.5,30.0,-178.125,33.0
52.5,30.0,-176.25,34.0
52.5,30.0,-174.375,38.0
54.375,0.0,-161.25,45.0
54.375,0.0,-159.375,43.0
54.375,0.0,-157.5,45.0
54.375,0.0,-155.625,44.0
54.375,0.0,-153.75,39.0
54.375,0.0,-151.875,37.0
54.375,0.0,-150.0,37.0
54.375,0.0,-148.125,37.0
54.375,0.0,-146.25,38.0
54.375,0.0,-144.375,34.0
54.375,0.0,-142.5,27.0
54.375,0.0,-140.625,31.0
54.375,0.0,-138.75,28.0
54.375,0.0,-136.875,27.0
54.375,0.0,-135.0,31.0
54.375,0.0,-133.125,30.0
54.375,0.0,-131.25,37.0
54.375,0.0,-129.375,39.0
54.375,0.0,-127.5,37.0
54.375,0.0,-125.625,45.0
54.375,0.0,-123.75,57.0
54.375,0.0,-121.875,67.0
54.375,0.0,-120.0,66.0
54.375,10.0,-181.875,33.0
54.375,10.0,-180.0,32.0
54.375,10.0,-178.125,33.0
54.375,10.0,-176.25,31.0
54.375,10.0,-174.375,29.0
54.375,10.0,-172.5,24.0
54.375,10.0,-170.625,27.0
54.375,10.0,-168.75,25.0
54.375,10.0,-166.875,25.0
54.375,10.0,-165.0,22.0
54.375,10.0,-163.125,21.0
54.375,10.0,-161.25,22.0
54.375,10.0,-159.375,22.0
54.375,10.0,-157.5,22.0
54.375,10.0,-155.625,22.0
54.375,10.0,-153.75,23.0
54.375,10.0,-151.875,21.0
54.375,10.0,-150.0,23.0
54.375,10.0,-148.125,29.0
54.375,10.0,-146.25,32.0
54.375,10.0,-144.375,35.0
54.375,10.0,-142.5,43.0
54.375,10.0,-140.625,53.0
54.375,20.0,-196.875,29.0
54.375,20.0,-195.0,31.0
54.375,20.0,-193.125,28.0
54.375,20.0,-191.25,25.0
54.375,20.0,-189.375,23.0
54.375,20.0,-187.5,23.0
54.375,20.0,-185.625,23.0
54.375,20.0,-183.75,16.0
54.375,20.0,-181.875,13.0
54.375,20.0,-180.0,12.0
54.375,20.0,-178.125,14.0
54.375,20.0,-176.25,14.0
54.375,20.0,-174.375,13.0
54.375,20.0,-172.5,13.0
54.375,20.0,-170.625,13.0
54.375,20.0,-168.75,13.0
54.375,20.0,-166.875,14.0
54.375,20.0,-165.0,15.0
54.375,20.0,-163.125,20.0
54.375,20.0,-161.25,26.0
54.375,20.0,-159.375,32.0
54.375,30.0,-202.5,21.0
54.375,30.0,-200.625,20.0
54.375,30.0,-198.75,22.0
54.375,30.0,-196.875,22.0
54.375,30.0,-195.0,23.0
54.375,30.0,-193.125,24.0
54.375,30.0,-191.25,23.0
54.375,30.0,-189.375,25.0
54.375,30.0,-187.5,25.0
54.375,30.0,-185.625,22.0
54.375,30.0,-183.75,25.0
54.375,30.0,-181.875,28.0
54.375,30.0,-180.0,31.0
54.375,30.0,-178.125,29.0
54.375,30.0,-176.25,30.0
54.375,30.0,-174.375,34.0
56.25,0.0,-161.25,47.0
56.25,0.0,-159.375,45.0
56.25,0.0,-157.5,46.0
56.25,0.0,-155.625,44.0
56.25,0.0,-153.75,39.0
56.25,0.0,-151.875,36.0
56.25,0.0,-150.0,38.0
56.25,0.0,-148.125,39.0
56.25,0.0,-146.25,40.0
56.25,0.0,-144.375,35.0
56.25,0.0,-142.5,33.0
56.25,0.0,-140.625,36.0
56.25,0.0,-138.75,31.0
56.25,0.0,-136.875,32.0
56.25,0.0,-135.0,33.0
56.25,0.0,-133.125,30.0
56.25,0.0,-131.25,39.0
56.25,0.0,-129.375,39.0
56.25,0.0,-127.5,30.0
56.25,0.0,-125.625,41.0
56.25,0.0,-123.75,54.0
56.25,0.0,-121.875,56.0
56.25,0.0,-120.0,56.0
56.25,0.0,-118.125,55.0
56.25,10.0,-181.875,34.0
56.25,10.0,-180.0,32.0
56.25,10.0,-178.125,31.0
56.25,10.0,-176.25,28.0
56.25,10.0,-174.375,27.0
56.25,10.0,-172.5,25.0
56.25,10.0,-170.625,27.0
56.25,10.0,-168.75,24.0
56.25,10.0,-166.875,26.0
56.25,10.0,-165.0,25.0
56.25,10.0,-163.125,21.0
56.25,10.0,-161.25,19.0
56.25,10.0,-159.375,23.0
56.25,10.0,-157.5,24.0
56.25,10.0,-155.625,21.0
56.25,10.0,-153.75,20.0
56.25,10.0,-151.875,21.0
56.25,10.0,-150.0,21.0
56.25,10.0,-148.125,25.0
56.25,10.0,-146.25,30.0
56.25,10.0,-144.375,34.0
56.25,10.0,-142.5,38.0
56.25,10.0,-140.625,42.0
56.25,10.0,-138.75,39.0
56.25,10.0,-136.875,42.0
56.25,10.0,-135.0,54.0
56.25,20.0,-193.125,28.0
56.25,20.0,-191.25,27.0
56.25,20.0,-189.375,24.0
56.25,20.0,-187.5,22.0
56.25,20.0,-185.625,19.0
56.25,20.0,-183.75,13.0
56.25,20.0,-181.875,11.0
56.25,20.0,-180.0,11.0
56.25,20.0,-178.125,14.0
56.25,20.0,-176.25,13.0
56.25,20.0,-174.375,13.0
56.25,20.0,-172.5,14.0
56.25,20.0,-170.625,13.0
56.25,20.0,-168.75,12.0
56.25,20.0,-166.875,16.0
56.25,20.0,-165.0,17.0
56.25,20.0,-163.125,19.0
56.25,20.0,-161.25,24.0
56.25,20.0,-159.375,26.0
56.25,30.0,-208.125,22.0
56.25,30.0,-206.25,20.0
56.25,30.0,-204.375,20.0
56.25,30.0,-202.5,20.0
56.25,30.0,-200.625,20.0
56.25,30.0,-198.75,23.0
56.25,30.0,-196.875,23.0
56.25,30.0,-195.0,21.0
56.25,30.0,-193.125,21.0
56.25,30.0,-191.25,21.0
56.25,30.0,-189.375,21.0
56.25,30.0,-187.5,21.0
56.25,30.0,-185.625,21.0
56.25,30.0,-183.75,19.0
56.25,30.0,-181.875,24.0
56.25,30.0,-180.0,27.0
56.25,30.0,-178.125,25.0
56.25,30.0,-176.25,29.0
56.25,30.0,-174.375,33.0
56.25,30.0,-172.5,32.0
56.25,30.0,-170.625,31.0
58.125,0.0,-161.25,44.0
58.125,0.0,-159.375,44.0
58.125,0.0,-157.5,44.0
58.125,0.0,-155.625,44.0
58.125,0.0,-153.75,41.0
58.125,0.0,-151.875,38.0
58.125,0.0,-150.0,41.0
58.125,0.0,-148.125,42.0
58.125,0.0,-146.25,40.0
58.125,0.0,-144.375,39.0
58.125,0.0,-142.5,39.0
58.125,0.0,-140.625,38.0
58.125,0.0,-138.75,38.0
58.125,0.0,-136.875,39.0
58.125,0.0,-135.0,36.0
58.125,0.0,-133.125,37.0
58.125,0.0,-131.25,42.0
58.125,0.0,-129.375,38.0
58.125,0.0,-127.5,25.0
58.125,0.0,-125.625,40.0
58.125,0.0,-123.75,48.0
58.125,0.0,-121.875,45.0
58.125,0.0,-120.0,49.0
58.125,0.0,-118.125,50.0
58.125,10.0,-181.875,39.0
58.125,10.0,-180.0,34.0
58.125,10.0,-178.125,31.0
58.125,10.0,-176.25,29.0
58.125,10.0,-174.375,29.0
58.125,10.0,-172.5,28.0
58.125,10.0,-170.625,25.0
58.125,10.0,-168.75,24.0
58.125,10.0,-166.875,28.0
58.125,10.0,-165.0,26.0
58.125,10.0,-163.125,21.0
58.125,10.0,-161.25,20.0
58.125,10.0,-159.375,20.0
58.125,10.0,-157.5,19.0
58.125,10.0,-155.625,18.0
58.125,10.0,-153.75,20.0
58.125,10.0,-151.875,21.0
58.125,10.0,-150.0,21.0
58.125,10.0,-148.125,25.0
58.125,10.0,-146.25,27.0
58.125,10.0,-144.375,29.0
58.125,10.0,-142.5,37.0
58.125,10.0,-140.625,40.0
58.125,10.0,-138.75,37.0
58.125,10.0,-136.875,42.0
58.125,10.0,-135.0,49.0
58.125,20.0,-193.125,28.0
58.125,20.0,-191.25,29.0
58.125,20.0,-189.375,25.0
58.125,20.0,-187.5,23.0
58.125,20.0,-185.625,20.0
58.125,20.0,-183.75,14.0
58.125,20.0,-181.875,14.0
58.125,20.0,-180.0,12.0
58.125,20.0,-178.125,11.0
58.125,20.0,-176.25,11.0
58.125,20.0,-174.375,12.0
58.125,20.0,-172.5,13.0
58.125,20.0,-170.625,14.0
58.125,20.0,-168.75,13.0
58.125,20.0,-166.875,14.0
58.125,20.0,-165.0,14.0
58.125,20.0,-163.125,17.0
58.125,20.0,-161.25,21.0
58.125,20.0,-159.375,21.0
58.125,30.0,-208.125,21.0
58.125,30.0,-206.25,20.0
58.125,30.0,-204.375,19.0
58.125,30.0,-202.5,19.0
58.125,30.0,-200.625,18.0
58.125,30.0,-198.75,20.0
58.125,30.0,-196.875,20.0
58.125,30.0,-195.0,19.0
58.125,30.0,-193.125,21.0
58.125,30.0,-191.25,21.0
58.125,30.0,-189.375,19.0
58.125,30.0,-187.5,18.0
58.125,30.0,-185.625,20.0
58.125,30.0,-183.75,14.0
58.125,30.0,-181.875,17.0
58.125,30.0,-180.0,20.0
58.125,30.0,-178.125,21.0
58.125,30.0,-176.25,27.0
58.125,30.0,-174.375,30.0
58.125,30.0,-172.5,33.0
58.125,30.0,-170.625,34.0
60.0,0.0,-157.5,45.0
60.0,0.0,-155.625,45.0
60.0,0.0,-153.75,48.0
60.0,0.0,-151.875,47.0
60.0,0.0,-150.0,49.0
60.0,0.0,-148.125,48.0
60.0,0.0,-146.25,43.0
60.0,0.0,-144.375,45.0
60.0,0.0,-142.5,45.0
60.0,0.0,-140.625,40.0
60.0,0.0,-138.75,45.0
60.0,0.0,-136.875,44.0
60.0,0.0,-135.0,42.0
60.0,0.0,-133.125,41.0
60.0,0.0,-131.25,39.0
60.0,0.0,-129.375,33.0
60.0,0.0,-127.5,27.0
60.0,0.0,-125.625,42.0
60.0,0.0,-123.75,41.0
60.0,0.0,-121.875,44.0
60.0,0.0,-120.0,48.0
60.0,0.0,-118.125,47.0
60.0,10.0,-178.125,34.0
60.0,10.0,-176.25,34.0
60.0,10.0,-174.375,35.0
60.0,10.0,-172.5,28.0
60.0,10.0,-170.625,25.0
60.0,10.0,-168.75,28.0
60.0,10.0,-166.875,27.0
60.0,10.0,-165.0,23.0
60.0,10.0,-163.125,24.0
60.0,10.0,-161.25,26.0
60.0,10.0,-159.375,23.0
60.0,10.0,-157.5,21.0
60.0,10.0,-155.625,22.0
60.0,10.0,-153.75,23.0
60.0,10.0,-151.875,23.0
60.0,10.0,-150.0,24.0
60.0,10.0,-148.125,26.0
60.0,10.0,-146.25,24.0
60.0,10.0,-144.375,28.0
60.0,10.0,-142.5,36.0
60.0,10.0,-140.625,36.0
60.0,10.0,-138.75,37.0
60.0,10.0,-136.875,42.0
60.0,10.0,-135.0,45.0
60.0,10.0,-133.125,51.0
60.0,20.0,-193.125,30.0
60.0,20.0,-191.25,27.0
60.0,20.0,-189.375,20.0
60.0,20.0,-187.5,18.0
60.0,20.0,-185.625,21.0
60.0,20.0,-183.75,17.0
60.0,20.0,-181.875,15.0
60.0,20.0,-180.0,12.0
60.0,20.0,-178.125,11.0
60.0,20.0,-176.25,11.0
60.0,20.0,-174.375,10.0
60.0,20.0,-172.5,11.0
60.0,20.0,-170.625,14.0
60.0,20.0,-168.75,14.0
60.0,20.0,-166.875,14.0
60.0,20.0,-165.0,15.0
60.0,20.0,-163.125,18.0
60.0,20.0,-161.25,20.0
60.0,20.0,-159.375,22.0
60.0,20.0,-157.5,29.0
60.0,20.0,-155.625,34.0
60.0,30.0,-211.875,24.0
60.0,30.0,-210.0,25.0
60.0,30.0,-208.125,22.0
60.0,30.0,-206.25,23.0
60.0,30.0,-204.375,22.0
60.0,30.0,-202.5,19.0
60.0,30.0,-200.625,18.0
60.0,30.0,-198.75,19.0
60.0,30.0,-196.875,18.0
60.0,30.0,-195.0,18.0
60.0,30.0,-193.125,21.0
60.0,30.0,-191.25,19.0
60.0,30.0,-189.375,14.0
60.0,30.0,-187.5,14.0
60.0,30.0,-185.625,17.0
60.0,30.0,-183.75,14.0
60.0,30.0,-181.875,16.0
60.0,30.0,-180.0,17.0
60.0,30.0,-178.125,20.0
60.0,30.0,-176.25,24.0
60.0,30.0,-174.375,27.0
60.0,30.0,-172.5,34.0
60.0,30.0,-170.625,36.0
61.875,0.0,-153.75,49.0
61.875,0.0,-151.875,50.0
61.875,0.0,-150.0,53.0
61.875,0.0,-148.125,55.0
61.875,0.0,-146.25,49.0
61.875,0.0,-144.375,50.0
61.875,0.0,-142.5,53.0
61.875,0.0,-140.625,48.0
61.875,0.0,-138.75,48.0
61.875,0.0,-136.875,50.0
61.875,0.0,-135.0,48.0
61.875,0.0,-133.125,38.0
61.875,0.0,-131.25,35.0
61.875,0.0,-129.375,39.0
61.875,0.0,-127.5,44.0
61.875,0.0,-125.625,49.0
61.875,0.0,-123.75,36.0
61.875,0.0,-121.875,41.0
61.875,0.0,-120.0,46.0
61.875,0.0,-118.125,48.0
61.875,10.0,-176.25,37.0
61.875,10.0,-174.375,38.0
61.875,10.0,-172.5,29.0
